ncols        380
nrows        85
xllcorner    6.97458333329
yllcorner    43.5920833333
cellsize     0.000833333333
NODATA_value 0
252 250 250 247 244 244 243 244 243 244 245 245 245 246 247 248 250 254 260 273 281 279 283 291 291 296 300 296 286 281 273 271 284 298 306 311 316 313 314 313 302 291 288 291 295 290 276 259 261 272 279 283 283 275 265 260 260 262 261 256 251 242 233 223 212 201 200 197 191 189 186 190 196 194 190 187 183 175 173 176 186 191 193 194 197 197 198 198 199 195 188 183 176 171 170 180 186 194 200 206 214 218 225 225 220 216 212 209 205 198 190 181 187 190 193 189 176 161 159 175 192 197 197 190 180 164 152 141 144 145 138 124 116 119 121 119 126 123 113 105 94 79 67 58 52 49 49 49 48 47 48 55 67 79 102 126 137 138 130 113 98 87 79 67 59 46 32 22 14 12 13 12 14 15 15 17 22 28 35 41 44 45 38 31 25 22 22 24 23 23 29 35 35 33 35 31 28 25 25 31 35 36 39 53 53 46 33 25 21 19 17 13 13 11 10 10 19 25 27 29 25 21 19 22 25 25 28 30 29 30 29 28 29 26 22 16 13 12 13 17 21 20 16 17 16 18 20 21 21 24 27 27 29 30 30 30 30 31 30 26 23 18 17 17 16 10 9 8 6 3 2 5 7 7 7 8 9 6 3 5 4 6 6 6 -2 9 8 8 7 6 4 6 4 7 3 4 3 2 5 6 3 2 1 0 0 0 0 0 0 0 0 0 0 0 0 0 0 0 0 0 0 0 0 0 0 0 0 0 0 0 0 0 0 0 0 0 0 0 0 0 0 0 0 0 0 0 0 0 0 0 0 0 0 0 0 0 0 0 0 0 0 0 0 0 0 0 0 0 0 0 0 0 0 0 0 0 0 0 0 0
249 248 245 243 243 241 241 242 241 242 245 246 246 246 248 248 249 248 250 257 265 268 270 273 275 281 281 280 272 263 260 267 278 283 293 304 310 306 303 303 301 294 290 290 289 282 276 267 273 277 276 273 271 265 257 246 243 242 240 236 237 232 220 210 204 199 202 202 199 195 187 183 184 183 182 183 188 182 172 178 187 189 191 191 190 191 192 195 196 198 197 193 184 176 165 167 182 191 197 201 201 204 212 217 215 212 211 207 201 194 186 176 171 173 176 174 167 159 155 170 185 189 188 181 171 162 155 160 169 163 148 130 116 108 100 95 97 100 100 94 84 73 64 55 52 45 40 39 40 40 38 43 50 63 83 99 114 127 131 126 115 106 96 82 67 57 44 26 17 10 11 12 12 14 17 20 26 35 45 51 63 70 58 39 30 24 22 23 23 21 23 29 34 32 29 29 32 30 24 20 22 29 25 29 37 38 34 24 17 17 14 13 11 11 11 12 20 27 26 30 26 17 18 20 21 21 24 25 25 26 25 21 21 21 16 11 9 11 13 18 20 19 16 16 16 19 21 23 23 24 25 25 27 29 30 28 27 29 28 25 21 15 14 13 12 6 6 6 8 6 0 3 4 6 7 6 6 7 4 4 6 5 6 7 7 6 4 4 4 3 4 6 2 1 3 3 2 5 4 3 2 3 0 0 0 0 0 0 0 0 0 0 0 0 0 0 0 0 0 0 0 0 0 0 0 0 0 0 0 0 0 0 0 0 0 0 0 0 0 0 0 0 0 0 0 0 0 0 0 0 0 0 0 0 0 0 0 0 0 0 0 0 0 0 0 0 0 0 0 0 0 0 0 0 0 0 0 0 0 0
246 247 246 243 241 238 238 238 239 239 245 246 250 251 250 252 251 248 248 249 250 253 259 264 266 270 266 263 261 254 257 272 279 273 279 294 302 296 294 301 302 297 290 286 283 280 275 271 273 275 271 264 257 250 246 245 242 237 232 230 227 220 217 218 213 204 197 195 193 191 190 185 185 183 181 177 181 186 176 169 175 181 186 189 189 188 187 188 191 198 201 196 191 185 179 164 165 178 184 188 191 199 207 210 206 204 207 213 211 201 192 185 179 173 166 156 150 147 144 161 180 188 189 181 171 166 173 181 181 169 148 131 119 111 98 84 76 75 79 77 71 67 63 53 45 44 41 33 34 30 29 31 33 40 53 67 84 105 123 124 116 106 100 89 77 70 57 39 26 16 14 10 9 12 19 34 38 42 54 73 84 83 79 63 43 34 26 24 24 21 20 20 23 24 19 20 22 21 19 19 15 16 18 19 19 18 22 24 19 16 15 12 9 9 9 13 18 21 23 23 25 17 16 17 17 19 20 21 22 22 22 18 14 17 15 10 9 11 12 16 18 15 14 14 14 18 20 18 15 17 20 21 21 20 19 21 22 21 18 17 14 11 10 10 8 6 5 4 5 7 1 3 5 5 5 5 7 8 6 10 9 5 3 6 6 8 6 3 2 2 2 3 3 3 4 11 9 2 2 2 2 2 0 0 0 0 0 0 0 0 0 0 0 0 0 0 0 0 0 0 0 0 0 0 0 0 0 0 0 0 0 0 0 0 0 0 0 0 0 0 0 0 0 0 0 0 0 0 0 0 0 0 0 0 0 0 0 0 0 0 0 0 0 0 0 0 0 0 0 0 0 0 0 0 0 0 0 0 0 0
248 247 244 241 237 238 242 242 239 239 239 240 248 250 252 257 260 261 262 257 249 247 249 252 254 256 253 247 246 243 248 260 272 273 269 276 281 278 286 295 303 303 296 286 281 279 278 276 274 274 273 271 269 265 260 262 259 253 247 244 240 230 224 219 215 210 202 198 202 202 199 192 187 186 185 179 174 179 176 165 164 174 186 191 189 187 186 184 184 190 196 192 188 186 179 163 153 165 173 183 197 205 212 212 209 207 203 208 213 210 207 206 205 201 187 175 166 157 142 152 174 188 192 183 169 162 172 180 178 168 151 132 123 112 97 83 68 57 59 66 64 61 56 47 36 37 37 30 28 25 24 25 23 24 29 41 61 88 112 118 110 98 83 81 79 74 66 63 56 44 26 18 11 12 19 37 49 53 69 84 82 78 70 66 55 45 38 30 25 24 21 20 18 18 17 17 16 16 15 14 13 14 14 12 12 13 13 15 15 14 15 12 11 11 10 13 18 25 25 19 14 11 11 15 13 11 12 14 16 14 14 12 10 10 9 9 10 8 10 11 12 12 12 13 13 10 10 11 10 10 10 8 7 7 9 8 8 7 6 8 10 10 6 6 7 4 5 7 4 6 4 1 3 4 6 7 7 7 4 5 6 2 2 2 3 5 5 4 4 4 2 4 5 5 3 5 2 1 -1 1 1 4 5 0 0 0 0 0 0 0 0 0 0 0 0 0 0 0 0 0 0 0 0 0 0 0 0 0 0 0 0 0 0 0 0 0 0 0 0 0 0 0 0 0 0 0 0 0 0 0 0 0 0 0 0 0 0 0 0 0 0 0 0 0 0 0 0 0 0 0 0 0 0 0 0 0 0 0 0 0
250 254 243 239 239 238 245 246 241 240 237 237 243 247 249 251 255 263 268 263 256 247 245 246 245 243 240 241 240 239 238 241 245 257 258 255 257 268 280 287 293 297 291 285 283 282 280 279 277 278 279 278 273 271 268 265 262 255 252 253 252 239 225 213 209 209 207 203 203 202 194 189 186 184 184 180 175 172 173 169 162 172 184 187 187 187 186 184 183 184 187 185 183 180 178 170 151 160 185 197 204 211 215 215 214 210 200 199 209 216 221 224 221 210 191 174 166 157 141 148 173 189 189 179 167 154 156 166 165 154 139 125 113 99 88 73 60 47 44 51 52 46 37 32 28 27 31 30 30 27 25 24 26 31 28 26 45 73 96 97 86 77 63 55 62 61 59 59 59 58 42 22 13 13 14 19 30 40 55 64 56 45 36 33 34 39 53 48 34 28 25 23 20 19 18 18 18 17 15 14 15 15 13 13 12 10 11 12 10 11 12 11 9 13 10 13 18 26 22 20 14 11 12 15 12 9 8 10 10 9 8 10 11 10 8 10 11 8 10 10 7 9 9 9 10 11 10 7 8 8 7 6 5 6 6 5 5 7 5 7 7 8 7 6 8 5 8 11 9 4 2 2 6 5 5 6 5 5 4 4 6 2 1 2 4 4 2 3 3 3 1 3 4 6 3 1 -1 -1 -1 1 5 0 0 0 0 0 0 0 0 0 0 0 0 0 0 0 0 0 0 0 0 0 0 0 0 0 0 0 0 0 0 0 0 0 0 0 0 0 0 0 0 0 0 0 0 0 0 0 0 0 0 0 0 0 0 0 0 0 0 0 0 0 0 0 0 0 0 0 0 0 0 0 0 0 0 0 0 0 0 0
244 243 238 236 238 238 237 240 241 240 237 240 242 245 246 248 250 257 264 262 254 246 244 242 242 242 243 242 241 238 240 237 235 238 240 239 244 259 264 269 277 283 282 278 280 282 279 274 273 273 266 264 265 266 263 261 250 243 242 246 240 232 216 203 201 207 208 203 199 195 188 184 185 187 192 193 188 182 183 177 164 167 178 180 180 182 183 185 188 187 186 183 181 178 172 161 151 166 187 202 209 212 217 221 217 210 201 195 199 211 220 227 228 213 196 178 166 153 137 143 171 184 183 175 162 149 142 143 143 135 119 106 97 90 84 75 61 51 44 40 36 36 32 28 27 32 40 41 42 45 42 41 44 43 33 24 30 52 74 67 53 45 38 36 40 38 34 31 32 37 43 35 18 13 14 13 16 21 28 29 24 18 17 14 17 24 40 57 60 60 50 52 45 43 45 50 44 28 21 17 15 15 13 14 14 12 10 10 10 11 9 12 13 10 7 10 17 20 19 15 12 12 13 10 9 10 9 6 7 6 6 10 12 12 7 7 7 8 13 13 9 8 9 11 10 10 9 5 7 7 8 8 7 7 7 5 5 10 9 7 7 6 9 9 8 5 10 12 11 7 4 1 5 5 4 4 4 6 7 6 3 3 2 1 3 3 5 4 2 1 3 5 3 4 2 0 -1 1 4 3 0 0 0 0 0 0 0 0 0 0 0 0 0 0 0 0 0 0 0 0 0 0 0 0 0 0 0 0 0 0 0 0 0 0 0 0 0 0 0 0 0 0 0 0 0 0 0 0 0 0 0 0 0 0 0 0 0 0 0 0 0 0 0 0 0 0 0 0 0 0 0 0 0 0 0 0 0 0 0 0
238 235 234 235 235 237 239 243 244 245 245 245 246 245 245 246 248 250 252 251 248 244 244 243 245 251 257 254 251 253 255 249 239 233 231 231 231 238 241 243 255 268 271 267 271 273 269 262 257 256 251 249 253 255 257 255 248 242 234 231 225 217 204 193 192 200 203 199 195 190 185 183 184 188 193 194 189 181 178 175 164 157 160 163 166 172 180 186 194 197 195 192 185 181 171 153 147 164 179 197 209 212 217 223 219 211 202 192 185 197 207 212 211 206 197 184 176 165 143 139 161 177 177 170 159 149 137 128 125 119 106 88 78 78 78 74 64 55 47 39 33 31 29 29 32 42 51 54 60 68 65 61 59 53 40 27 23 32 48 41 29 22 21 20 20 20 16 14 14 16 21 29 25 17 19 17 15 15 15 14 15 13 12 9 12 13 19 35 55 59 60 73 84 88 87 78 70 56 48 37 32 28 19 17 15 13 11 12 10 10 10 13 11 6 6 10 17 17 15 11 9 9 10 7 6 7 7 6 6 6 5 6 5 3 2 3 6 7 10 11 9 7 7 7 7 7 8 8 8 6 5 4 3 3 2 2 3 3 3 4 4 2 4 5 3 2 6 9 8 6 1 -1 5 6 6 5 5 5 4 2 0 0 1 3 5 2 2 2 2 3 4 4 3 2 1 0 2 2 1 0 0 0 0 0 0 0 0 0 0 0 0 0 0 0 0 0 0 0 0 0 0 0 0 0 0 0 0 0 0 0 0 0 0 0 0 0 0 0 0 0 0 0 0 0 0 0 0 0 0 0 0 0 0 0 0 0 0 0 0 0 0 0 0 0 0 0 0 0 0 0 0 0 0 0 0 0 0 0 0 0
236 233 234 236 234 234 236 241 251 253 250 253 253 248 245 247 247 248 248 248 249 249 248 247 258 274 284 280 277 274 272 266 255 248 242 233 227 228 226 226 229 236 245 251 251 252 251 249 244 242 239 237 234 235 242 246 249 247 237 223 216 205 196 187 184 185 191 197 196 190 186 185 188 190 191 191 187 178 170 167 164 157 156 155 153 161 176 185 196 201 199 195 190 182 177 157 137 148 164 180 197 205 211 218 220 217 211 201 188 182 192 196 192 180 174 167 160 160 143 130 148 166 170 166 159 151 135 113 102 104 101 81 67 64 59 62 63 57 45 39 33 33 31 34 40 55 66 74 84 91 88 82 78 63 44 24 20 21 27 26 23 22 23 19 18 16 16 17 17 14 15 16 18 16 15 14 13 13 13 13 11 11 9 9 10 11 10 14 25 36 47 70 84 88 91 86 80 71 60 49 43 39 33 28 25 16 13 10 9 9 10 11 12 8 8 9 14 12 8 8 6 6 6 6 5 8 9 6 4 3 1 1 0 0 0 1 2 3 5 7 5 5 5 6 5 4 4 4 1 0 0 0 0 1 1 0 1 1 0 0 0 0 0 0 1 4 5 3 3 3 0 -1 3 5 8 6 4 4 3 3 3 1 0 1 4 3 1 1 1 3 4 2 3 3 1 1 0 0 0 0 0 0 0 0 0 0 0 0 0 0 0 0 0 0 0 0 0 0 0 0 0 0 0 0 0 0 0 0 0 0 0 0 0 0 0 0 0 0 0 0 0 0 0 0 0 0 0 0 0 0 0 0 0 0 0 0 0 0 0 0 0 0 0 0 0 0 0 0 0 0 0 0 0 0 0 0 0 0 0 0
234 233 234 235 235 234 238 243 258 264 259 257 259 254 249 251 250 252 252 256 261 260 257 255 261 276 291 299 299 294 290 284 280 271 258 245 231 226 225 225 223 221 224 230 232 232 228 226 227 226 226 227 227 222 222 225 226 229 229 221 211 198 190 188 191 183 183 191 195 184 180 178 180 181 184 186 182 175 165 160 159 160 163 159 154 153 161 169 178 188 187 178 169 171 174 165 144 130 146 164 174 181 184 198 212 216 212 207 203 190 176 175 174 159 151 142 139 138 125 118 136 157 167 164 159 156 143 110 97 98 93 74 57 57 50 46 48 46 38 34 32 33 38 43 57 76 92 104 116 116 111 103 85 65 41 26 22 20 20 25 27 33 44 41 35 35 40 41 37 29 26 25 25 23 21 21 26 25 20 17 11 11 10 9 8 10 9 9 10 15 27 49 69 81 84 78 73 66 55 47 39 36 33 33 31 24 13 8 8 10 9 11 11 8 10 8 11 9 6 9 7 7 6 5 4 5 2 1 0 0 0 0 0 0 0 0 1 2 1 1 0 2 2 1 2 2 2 1 0 0 1 2 2 2 2 0 0 0 0 0 0 0 0 0 0 0 0 4 1 0 -4 -4 0 2 7 8 4 1 4 4 3 4 4 3 2 1 1 2 1 1 0 3 5 3 2 1 0 0 0 0 0 0 0 0 0 0 0 0 0 0 0 0 0 0 0 0 0 0 0 0 0 0 0 0 0 0 0 0 0 0 0 0 0 0 0 0 0 0 0 0 0 0 0 0 0 0 0 0 0 0 0 0 0 0 0 0 0 0 0 0 0 0 0 0 0 0 0 0 0 0 0 0 0 0 0 0 0 0 0 0
234 233 234 236 240 242 245 247 257 268 270 266 261 255 252 255 257 255 256 265 273 272 270 266 263 273 289 303 309 310 307 297 287 274 262 252 242 237 238 243 243 231 221 219 220 220 217 215 214 215 214 214 215 212 210 209 207 209 213 208 199 191 189 194 195 183 176 179 180 175 172 171 170 171 173 175 173 167 164 167 166 171 172 163 159 157 150 149 152 163 164 148 143 142 149 151 133 121 123 136 148 153 166 190 208 211 210 212 212 205 191 177 174 168 167 157 149 145 128 114 123 147 160 156 149 147 140 117 100 90 78 62 48 45 41 39 38 37 36 35 39 44 57 70 86 103 125 142 142 134 118 99 75 57 54 57 56 54 51 46 38 41 61 71 63 69 81 80 77 69 60 55 59 51 50 52 61 65 61 39 15 11 10 10 9 9 10 10 11 12 15 26 51 72 84 79 64 54 46 39 32 29 24 25 25 19 13 10 8 7 9 11 8 11 12 9 6 5 6 9 8 6 3 1 1 0 0 0 0 0 0 0 0 0 0 0 0 0 0 0 0 0 0 0 0 0 1 1 2 1 3 3 2 2 0 0 0 0 0 0 0 0 0 0 0 0 0 0 1 0 -1 1 1 0 2 1 7 7 2 3 4 4 1 2 1 2 0 -2 0 2 0 2 3 1 1 0 0 0 0 0 0 0 0 0 0 0 0 0 0 0 0 0 0 0 0 0 0 0 0 0 0 0 0 0 0 0 0 0 0 0 0 0 0 0 0 0 0 0 0 0 0 0 0 0 0 0 0 0 0 0 0 0 0 0 0 0 0 0 0 0 0 0 0 0 0 0 0 0 0 0 0 0 0 0 0 0 0 0 0 0
232 235 235 239 244 244 244 249 255 263 269 270 269 266 262 261 259 259 262 273 281 286 287 282 273 273 284 295 304 308 308 303 290 279 270 262 263 266 267 265 263 248 229 221 215 215 219 221 221 219 216 212 210 212 214 212 204 200 201 196 193 200 198 194 191 187 177 176 173 174 177 176 174 171 169 167 167 169 177 179 178 178 177 176 174 169 159 153 149 147 146 142 143 136 135 133 125 122 115 117 122 129 149 183 207 211 212 214 214 208 202 200 196 190 185 176 165 152 135 118 117 131 145 142 137 133 124 109 99 90 73 57 43 40 38 37 35 35 39 44 50 64 80 95 107 124 142 144 130 117 100 86 73 74 89 104 100 93 84 64 52 54 72 91 93 94 93 86 80 78 82 83 87 88 92 92 97 100 89 67 35 15 11 10 11 9 6 9 10 9 11 17 33 58 75 68 57 50 48 44 38 30 22 21 21 17 15 12 7 6 5 5 9 11 10 5 4 5 8 8 7 4 0 0 0 0 0 0 0 0 0 0 0 0 0 0 0 0 0 0 0 0 0 0 0 1 2 3 2 1 1 0 0 0 0 0 0 0 0 0 0 0 0 0 0 0 0 0 0 0 0 1 1 1 0 0 1 2 2 -1 1 3 5 5 4 2 0 0 1 1 2 2 1 0 0 0 0 0 0 0 0 0 0 0 0 0 0 0 0 0 0 0 0 0 0 0 0 0 0 0 0 0 0 0 0 0 0 0 0 0 0 0 0 0 0 0 0 0 0 0 0 0 0 0 0 0 0 0 0 0 0 0 0 0 0 0 0 0 0 0 0 0 0 0 0 0 0 0 0 0 0 0 0 0 0 0 0 0 0 0
233 236 237 236 239 241 241 244 251 257 261 264 263 264 264 262 261 267 278 284 291 294 298 298 288 278 277 279 289 300 300 297 290 286 286 287 283 279 280 276 265 254 245 237 226 218 224 230 232 230 233 235 234 232 230 224 210 199 195 194 200 210 207 199 190 186 181 182 186 193 191 181 178 178 179 180 185 186 185 183 183 182 180 173 168 167 162 154 147 145 144 143 145 134 133 133 128 129 120 113 109 112 116 129 145 161 180 194 208 207 204 203 201 195 183 179 173 165 151 128 113 112 118 124 122 118 111 104 97 85 70 55 41 41 44 40 38 42 48 57 66 79 94 109 131 151 155 141 123 104 98 99 103 111 127 137 136 119 96 70 68 88 103 115 116 118 112 102 88 78 72 69 73 76 83 84 88 94 96 83 55 26 12 9 9 9 9 11 9 9 8 14 33 60 80 71 56 44 37 29 28 28 22 15 16 15 12 10 7 4 4 4 8 10 10 7 4 4 3 2 0 0 0 0 0 0 0 0 0 0 0 0 0 0 0 0 0 0 0 0 0 0 0 0 0 0 0 0 0 0 0 0 0 0 0 0 0 0 0 0 0 0 0 0 0 0 0 0 0 0 0 1 2 1 0 -1 -1 1 0 2 -1 2 3 6 3 1 2 2 2 2 4 3 1 0 0 0 0 0 0 0 0 0 0 0 0 0 0 0 0 0 0 0 0 0 0 0 0 0 0 0 0 0 0 0 0 0 0 0 0 0 0 0 0 0 0 0 0 0 0 0 0 0 0 0 0 0 0 0 0 0 0 0 0 0 0 0 0 0 0 0 0 0 0 0 0 0 0 0 0 0 0 0 0 0 0 0 0 0 0 0
231 231 233 233 235 237 239 242 248 254 259 262 264 264 263 266 268 277 285 289 294 300 302 299 294 292 290 283 285 294 290 285 281 279 283 287 281 278 279 273 263 256 253 249 235 226 234 240 236 233 230 230 228 224 219 214 207 202 195 194 197 199 196 192 190 187 187 193 194 194 193 189 190 188 185 186 185 183 182 180 181 183 180 165 163 166 157 154 158 162 163 162 155 146 135 134 135 141 142 145 138 117 108 109 109 118 120 133 186 202 200 198 195 185 174 168 164 161 151 141 126 117 107 101 103 105 103 97 88 76 61 45 42 51 53 46 43 53 60 73 91 104 114 135 161 171 169 156 138 128 129 139 147 154 150 147 137 115 90 83 98 122 140 143 136 133 127 116 104 101 92 79 68 60 58 56 61 72 81 80 66 42 23 13 10 10 8 8 8 6 7 13 34 68 75 64 52 48 46 34 23 19 14 13 12 11 9 10 6 1 2 4 5 8 12 14 6 1 1 0 0 0 0 0 0 0 0 0 0 0 0 0 0 0 0 0 0 0 0 0 0 0 0 0 0 0 0 0 0 0 0 0 0 0 0 0 0 0 0 0 0 0 0 0 0 0 0 0 0 0 0 0 1 0 1 0 1 -2 0 1 5 9 9 5 3 1 2 3 1 2 2 2 0 0 0 0 0 0 0 0 0 0 0 0 0 0 0 0 0 0 0 0 0 0 0 0 0 0 0 0 0 0 0 0 0 0 0 0 0 0 0 0 0 0 0 0 0 0 0 0 0 0 0 0 0 0 0 0 0 0 0 0 0 0 0 0 0 0 0 0 0 0 0 0 0 0 0 0 0 0 0 0 0 0 0 0 0 0 0 0
231 230 231 233 239 246 250 255 262 262 265 266 267 267 268 275 279 289 288 289 295 298 298 293 295 302 303 301 301 297 286 276 274 270 273 275 274 276 277 271 263 257 252 245 236 238 243 242 243 244 240 234 227 221 216 213 208 204 195 191 190 187 186 184 183 184 186 188 191 189 186 185 185 183 176 173 172 173 173 172 169 167 167 163 177 188 183 183 188 189 185 177 170 162 162 166 165 169 165 169 166 127 108 105 104 104 104 105 140 189 194 191 188 183 170 155 148 140 133 135 132 126 118 105 95 88 86 80 72 62 51 48 56 65 66 55 54 63 77 99 112 123 137 161 175 171 169 167 163 160 164 169 171 159 144 133 121 115 114 119 137 151 158 153 145 136 130 128 124 124 117 104 92 85 73 57 41 46 54 58 62 53 36 20 11 10 11 8 7 8 8 13 34 58 60 54 43 38 31 29 25 17 12 11 10 8 7 9 6 5 5 4 6 10 12 8 4 1 0 0 0 0 0 0 0 0 0 0 0 0 0 0 0 0 0 0 0 0 0 0 0 0 0 0 0 0 0 0 0 0 0 0 0 0 0 0 0 0 0 0 0 0 0 0 0 0 0 0 0 0 0 0 0 2 2 5 5 2 -1 1 2 5 5 4 2 1 2 3 2 1 1 0 0 0 0 0 0 0 0 0 0 0 0 0 0 0 0 0 0 0 0 0 0 0 0 0 0 0 0 0 0 0 0 0 0 0 0 0 0 0 0 0 0 0 0 0 0 0 0 0 0 0 0 0 0 0 0 0 0 0 0 0 0 0 0 0 0 0 0 0 0 0 0 0 0 0 0 0 0 0 0 0 0 0 0 0 0 0 0 0
227 226 229 233 246 262 272 273 273 269 266 266 266 269 273 277 285 291 290 290 289 286 287 283 282 292 299 302 303 300 287 276 267 263 264 268 268 268 268 266 263 259 253 244 241 244 242 238 233 235 239 239 233 226 219 213 205 199 194 190 188 185 184 184 182 183 183 181 181 182 178 178 179 180 180 182 184 194 192 186 177 175 178 181 190 197 202 201 204 204 198 191 180 173 171 178 178 175 171 172 175 164 127 110 105 104 102 103 130 190 193 189 184 178 172 161 147 126 118 127 133 134 122 109 99 94 88 77 65 55 48 56 71 79 77 71 72 81 98 119 132 146 159 170 165 160 164 167 175 179 182 177 167 151 136 132 136 137 145 146 144 141 137 133 126 117 116 126 131 127 119 109 101 94 81 64 43 32 32 38 37 30 21 14 9 8 8 9 10 11 11 11 15 28 46 47 33 22 19 18 16 11 10 9 8 7 5 5 4 3 4 5 5 6 3 0 0 0 0 0 0 0 0 0 0 0 0 0 0 0 0 0 0 0 0 0 0 0 0 0 0 0 0 0 0 0 0 0 0 0 0 0 0 0 0 0 0 0 0 0 0 0 0 0 0 0 0 0 0 0 0 0 0 0 -1 2 4 3 2 4 -2 -1 0 2 3 2 2 2 1 0 0 0 0 0 0 0 0 0 0 0 0 0 0 0 0 0 0 0 0 0 0 0 0 0 0 0 0 0 0 0 0 0 0 0 0 0 0 0 0 0 0 0 0 0 0 0 0 0 0 0 0 0 0 0 0 0 0 0 0 0 0 0 0 0 0 0 0 0 0 0 0 0 0 0 0 0 0 0 0 0 0 0 0 0 0 0 0 0 0 0
227 226 226 230 243 258 274 280 275 265 265 267 267 271 279 280 283 289 288 285 280 275 274 274 272 274 282 286 290 287 280 273 266 257 255 262 264 264 264 261 258 258 254 247 246 244 241 234 227 224 226 227 226 222 217 209 203 197 194 195 196 192 192 190 184 185 183 182 185 185 183 187 193 199 201 199 202 209 211 205 192 187 192 192 196 203 207 208 206 205 202 199 192 184 180 181 178 174 170 170 176 176 170 148 115 107 106 105 125 176 192 184 180 176 168 152 128 109 114 132 135 134 124 113 102 92 80 67 58 56 64 72 80 87 91 92 91 98 109 126 143 155 159 156 153 158 164 167 172 174 179 181 170 156 141 151 162 164 159 147 133 121 110 103 98 92 97 106 107 103 95 82 73 68 57 46 34 35 30 21 14 10 11 8 6 6 7 6 7 8 7 10 10 13 30 38 24 13 15 11 10 11 9 8 7 7 6 2 2 1 2 2 3 1 0 0 0 0 0 0 0 0 0 0 0 0 0 0 0 0 0 0 0 0 0 0 0 0 0 0 0 0 0 0 0 0 0 0 0 0 0 0 0 0 0 0 0 0 0 0 0 0 0 0 0 0 0 0 0 0 0 0 0 1 2 3 6 4 2 1 1 1 1 2 2 3 2 1 0 0 0 0 0 0 0 0 0 0 0 0 0 0 0 0 0 0 0 0 0 0 0 0 0 0 0 0 0 0 0 0 0 0 0 0 0 0 0 0 0 0 0 0 0 0 0 0 0 0 0 0 0 0 0 0 0 0 0 0 0 0 0 0 0 0 0 0 0 0 0 0 0 0 0 0 0 0 0 0 0 0 0 0 0 0 0 0 0 0 0 0
229 229 227 227 234 246 258 267 265 259 260 267 270 280 289 287 288 293 293 288 280 272 263 259 258 260 267 277 286 282 270 263 260 253 247 253 261 265 264 263 260 258 252 249 248 243 242 232 228 228 227 221 217 214 211 206 202 199 195 199 201 201 199 195 189 186 183 182 185 188 191 195 202 209 213 211 210 215 217 210 199 192 194 197 199 201 203 204 201 198 197 197 192 189 183 178 173 169 167 167 168 172 174 164 126 104 103 106 111 135 159 166 162 158 147 124 95 82 95 121 131 123 113 101 92 83 71 55 57 75 84 89 95 102 108 111 111 116 116 122 129 137 139 141 153 162 169 175 177 178 177 180 178 169 159 162 175 174 160 147 144 137 122 111 93 81 78 79 77 71 66 59 55 56 53 52 55 66 67 51 32 19 12 8 8 8 7 7 11 14 24 25 15 11 15 21 18 10 9 8 8 11 9 4 3 8 7 3 4 3 3 4 1 0 0 0 0 0 0 0 0 0 0 0 0 0 0 0 0 0 0 0 0 0 0 0 0 0 0 0 0 0 0 0 0 0 0 0 0 0 0 0 0 0 0 0 0 0 0 0 0 0 0 0 0 0 0 0 0 0 0 0 1 1 1 2 4 3 0 1 2 3 3 3 4 3 1 0 0 0 0 0 0 0 0 0 0 0 0 0 0 0 0 0 0 0 0 0 0 0 0 0 0 0 0 0 0 0 0 0 0 0 0 0 0 0 0 0 0 0 0 0 0 0 0 0 0 0 0 0 0 0 0 0 0 0 0 0 0 0 0 0 0 0 0 0 0 0 0 0 0 0 0 0 0 0 0 0 0 0 0 0 0 0 0 0 0 0 0 0
232 230 228 225 229 239 249 255 257 256 254 262 270 283 292 293 296 297 295 290 285 278 269 258 250 250 256 266 277 277 269 258 252 247 240 248 256 263 264 265 262 260 253 247 243 240 235 233 238 236 232 225 217 210 207 205 201 197 198 199 197 197 195 195 192 190 187 184 183 188 195 202 213 221 219 215 211 212 215 211 203 195 192 192 195 197 195 193 191 186 184 185 182 178 178 172 165 160 159 155 149 151 156 154 125 104 104 106 105 102 113 122 117 113 107 96 86 85 82 93 105 99 86 75 70 65 59 56 66 90 100 105 115 123 128 132 129 125 118 113 115 115 116 131 154 168 178 184 186 184 181 179 183 185 179 174 181 183 174 160 153 143 129 113 100 94 90 87 79 73 76 80 81 82 83 86 89 97 90 82 68 41 20 12 12 11 10 10 15 36 52 47 28 11 9 9 9 7 8 8 9 11 6 2 5 4 4 5 5 3 2 0 0 0 0 0 0 0 0 0 0 0 0 0 0 0 0 0 0 0 0 0 0 0 0 0 0 0 0 0 0 0 0 0 0 0 0 0 0 0 0 0 0 0 0 0 0 0 0 0 0 0 0 0 0 0 0 0 0 0 0 1 1 -1 1 3 4 4 3 3 3 2 1 2 4 4 2 0 0 0 0 0 0 0 0 0 0 0 0 0 0 0 0 0 0 0 0 0 0 0 0 0 0 0 0 0 0 0 0 0 0 0 0 0 0 0 0 0 0 0 0 0 0 0 0 0 0 0 0 0 0 0 0 0 0 0 0 0 0 0 0 0 0 0 0 0 0 0 0 0 0 0 0 0 0 0 0 0 0 0 0 0 0 0 0 0 0 0 0 0
244 235 228 224 225 232 239 247 256 255 251 249 259 271 280 290 295 297 296 290 287 284 277 266 257 249 246 254 262 266 267 259 253 243 234 244 251 256 255 255 256 257 253 248 249 247 244 245 245 239 230 220 215 208 203 201 199 197 199 201 202 201 193 189 187 185 185 183 183 187 194 205 215 220 216 210 205 204 209 208 204 197 191 187 187 187 184 181 180 177 175 172 169 167 166 166 160 157 157 155 152 145 137 128 114 103 102 103 102 107 110 109 113 120 124 118 123 126 116 101 91 83 78 79 82 77 67 71 87 104 116 129 142 155 153 140 131 121 113 109 107 108 121 137 157 174 183 189 190 189 187 186 189 193 194 191 191 190 180 167 147 131 118 111 109 109 105 96 89 85 88 92 95 101 102 106 105 100 85 71 58 39 23 20 23 23 20 22 30 41 44 41 30 16 13 9 8 6 5 5 6 7 3 2 2 4 5 5 2 1 0 0 0 0 0 0 0 0 0 0 0 0 0 0 0 0 0 0 0 0 0 0 0 0 0 0 0 0 0 0 0 0 0 0 0 0 0 0 0 0 0 0 0 0 0 0 0 0 0 0 0 0 0 0 0 0 0 0 0 0 2 2 -1 2 1 2 1 1 2 0 1 1 1 0 1 4 1 0 0 0 0 0 0 0 0 0 0 0 0 0 0 0 0 0 0 0 0 0 0 0 0 0 0 0 0 0 0 0 0 0 0 0 0 0 0 0 0 0 0 0 0 0 0 0 0 0 0 0 0 0 0 0 0 0 0 0 0 0 0 0 0 0 0 0 0 0 0 0 0 0 0 0 0 0 0 0 0 0 0 0 0 0 0 0 0 0 0 0 0 0
250 243 235 229 226 227 238 254 260 254 247 244 252 258 264 278 290 295 295 291 285 281 276 269 261 251 242 239 246 253 255 251 246 238 232 239 248 250 246 242 247 254 253 252 249 246 247 246 243 236 225 217 209 204 203 201 201 202 203 205 208 207 202 195 188 187 186 185 184 187 194 203 210 212 209 202 197 197 198 199 198 196 191 184 178 176 177 177 176 176 172 168 166 165 170 178 181 180 180 177 174 171 164 150 128 109 104 106 119 140 144 143 155 159 158 159 167 172 159 144 129 112 104 98 89 80 77 84 98 116 130 151 170 173 160 143 131 117 106 102 103 112 127 146 165 176 180 186 190 193 192 192 191 194 195 195 192 190 180 163 148 130 117 111 106 98 90 83 77 75 73 72 79 91 99 104 104 97 80 65 54 45 41 43 53 51 41 44 53 47 41 31 22 17 14 9 7 6 5 5 5 4 4 7 7 4 4 2 4 0 0 0 0 0 0 0 0 0 0 0 0 0 0 0 0 0 0 0 0 0 0 0 0 0 0 0 0 0 0 0 0 0 0 0 0 0 0 0 0 0 0 0 0 0 0 0 0 0 0 0 0 0 0 0 0 0 0 0 0 1 1 1 1 1 2 3 2 1 -1 -1 0 0 0 0 0 0 0 0 0 0 0 0 0 0 0 0 0 0 0 0 0 0 0 0 0 0 0 0 0 0 0 0 0 0 0 0 0 0 0 0 0 0 0 0 0 0 0 0 0 0 0 0 0 0 0 0 0 0 0 0 0 0 0 0 0 0 0 0 0 0 0 0 0 0 0 0 0 0 0 0 0 0 0 0 0 0 0 0 0 0 0 0 0 0 0 0 0 0 0 0
251 244 245 239 230 227 232 241 245 244 240 238 243 248 252 262 275 284 287 288 285 280 273 264 260 256 249 237 234 239 243 242 235 228 224 230 239 243 237 234 241 256 261 256 246 237 237 242 240 232 220 213 209 205 207 207 205 206 213 213 213 215 217 212 202 192 190 189 189 193 201 206 209 210 206 196 189 187 186 186 188 190 190 188 185 175 171 174 177 176 174 170 169 173 182 192 203 205 202 195 187 183 181 178 166 145 131 138 159 167 162 158 169 177 180 185 192 190 171 151 132 119 113 102 88 85 101 109 108 116 132 155 174 172 158 144 130 116 101 97 106 116 132 148 160 162 166 175 187 197 198 196 196 195 188 178 173 173 166 155 135 120 103 96 95 93 94 98 100 97 91 76 65 71 78 87 95 98 87 76 69 57 55 59 62 64 64 62 62 53 40 30 23 16 12 11 9 7 7 7 6 5 4 5 7 4 4 4 2 0 0 0 0 0 0 0 0 0 0 0 0 0 0 0 0 0 0 0 0 0 0 0 0 0 0 0 0 0 0 0 0 0 0 0 0 0 0 0 0 0 0 0 0 0 0 0 0 0 0 0 0 0 0 0 0 0 0 0 0 0 1 0 1 0 0 1 1 1 0 0 0 0 0 0 0 0 0 0 0 0 0 0 0 0 0 0 0 0 0 0 0 0 0 0 0 0 0 0 0 0 0 0 0 0 0 0 0 0 0 0 0 0 0 0 0 0 0 0 0 0 0 0 0 0 0 0 0 0 0 0 0 0 0 0 0 0 0 0 0 0 0 0 0 0 0 0 0 0 0 0 0 0 0 0 0 0 0 0 0 0 0 0 0 0 0 0 0 0 0 0
245 241 244 245 242 238 234 230 228 230 232 232 233 238 243 247 255 263 273 282 284 281 277 272 266 258 254 246 232 225 227 231 227 221 216 220 224 229 230 228 237 253 261 255 246 237 228 226 228 224 218 210 210 214 213 212 206 206 213 218 217 218 221 216 211 202 194 194 195 199 208 209 208 209 206 200 195 189 184 183 181 182 184 182 180 175 170 172 176 174 173 172 171 179 191 200 207 211 206 196 187 178 173 171 167 156 146 156 173 178 175 172 180 184 191 198 202 197 182 158 136 125 123 114 98 102 122 131 126 124 140 159 173 166 157 138 122 108 96 93 101 119 130 138 141 142 152 167 180 187 195 201 200 193 173 155 145 146 147 138 117 101 103 113 117 122 127 124 120 112 106 97 80 74 64 63 72 80 81 78 74 65 56 50 49 55 63 65 60 47 34 26 18 13 14 15 11 6 7 8 4 3 4 6 6 6 9 6 1 0 0 0 0 0 0 0 0 0 0 0 0 0 0 0 0 0 0 0 0 0 0 0 0 0 0 0 0 0 0 0 0 0 0 0 0 0 0 0 0 0 0 0 0 0 0 0 0 0 0 0 0 0 0 0 0 0 0 0 0 0 0 0 0 0 0 0 0 0 0 0 0 0 0 0 0 0 0 0 0 0 0 0 0 0 0 0 0 0 0 0 0 0 0 0 0 0 0 0 0 0 0 0 0 0 0 0 0 0 0 0 0 0 0 0 0 0 0 0 0 0 0 0 0 0 0 0 0 0 0 0 0 0 0 0 0 0 0 0 0 0 0 0 0 0 0 0 0 0 0 0 0 0 0 0 0 0 0 0 0 0 0 0 0 0 0 0 0 0 0 0
245 246 246 244 242 241 239 239 234 226 222 223 225 230 235 240 243 251 264 272 278 280 280 277 266 254 251 248 237 224 218 218 220 218 212 211 215 218 220 221 227 239 247 245 237 231 226 221 218 217 214 214 217 220 218 216 209 206 207 209 210 209 211 212 208 198 192 194 198 200 204 205 208 209 209 207 204 199 192 184 180 176 176 173 170 168 168 166 166 170 173 174 175 183 191 200 204 203 200 191 182 172 167 163 160 153 153 164 178 185 181 180 186 189 192 196 199 194 183 164 143 133 128 119 106 114 131 145 148 144 154 165 169 163 154 135 116 103 95 91 96 111 114 116 125 138 152 159 165 174 185 196 200 194 174 154 139 126 120 115 106 106 123 131 135 140 138 135 127 119 113 103 96 88 74 55 50 58 67 74 76 67 55 46 40 46 59 63 53 37 28 21 15 14 14 13 10 6 6 6 6 5 5 5 5 5 9 2 0 0 0 0 0 0 0 0 0 0 0 0 0 0 0 0 0 0 0 0 0 0 0 0 0 0 0 0 0 0 0 0 0 0 0 0 0 0 0 0 0 0 0 0 0 0 0 0 0 0 0 0 0 0 0 0 0 0 0 0 0 0 0 0 0 0 0 0 0 0 0 0 0 0 0 0 0 0 0 0 0 0 0 0 0 0 0 0 0 0 0 0 0 0 0 0 0 0 0 0 0 0 0 0 0 0 0 0 0 0 0 0 0 0 0 0 0 0 0 0 0 0 0 0 0 0 0 0 0 0 0 0 0 0 0 0 0 0 0 0 0 0 0 0 0 0 0 0 0 0 0 0 0 0 0 0 0 0 0 0 0 0 0 0 0 0 0 0 0 0 0 0
253 256 257 252 244 240 238 238 235 232 233 229 223 220 224 230 238 251 259 262 262 265 269 269 263 248 238 234 227 221 215 213 214 213 206 204 210 211 212 215 220 227 234 232 230 230 230 225 223 220 223 225 228 225 222 217 210 206 204 204 203 202 198 196 196 193 188 187 192 194 196 199 204 205 203 203 205 205 204 197 194 187 183 176 168 162 163 161 159 165 171 178 180 182 188 194 196 192 188 183 178 175 178 179 177 171 171 174 177 182 182 182 185 185 184 184 184 183 177 163 152 148 143 131 124 127 135 147 155 157 165 175 172 165 153 140 125 110 97 87 93 102 112 126 139 145 145 141 147 164 178 188 193 190 181 166 149 131 117 110 110 125 139 150 153 146 140 131 121 109 104 98 91 85 75 59 48 44 54 66 71 73 68 52 40 35 45 49 42 31 22 17 12 10 10 9 8 6 5 5 6 6 5 4 2 7 1 0 0 0 0 0 0 0 0 0 0 0 0 0 0 0 0 0 0 0 0 0 0 0 0 0 0 0 0 0 0 0 0 0 0 0 0 0 0 0 0 0 0 0 0 0 0 0 0 0 0 0 0 0 0 0 0 0 0 0 0 0 0 0 0 0 0 0 0 0 0 0 0 0 0 0 0 0 0 0 0 0 0 0 0 0 0 0 0 0 0 0 0 0 0 0 0 0 0 0 0 0 0 0 0 0 0 0 0 0 0 0 0 0 0 0 0 0 0 0 0 0 0 0 0 0 0 0 0 0 0 0 0 0 0 0 0 0 0 0 0 0 0 0 0 0 0 0 0 0 0 0 0 0 0 0 0 0 0 0 0 0 0 0 0 0 0 0 0 0 0 0 0 0
255 257 259 263 256 243 239 236 233 234 236 239 238 229 224 225 230 241 251 251 246 250 253 251 251 243 230 222 216 213 208 209 209 209 205 200 202 205 207 208 214 216 216 221 231 239 242 239 240 235 236 235 232 228 225 222 219 218 215 209 203 199 196 192 191 191 189 186 187 190 189 190 193 193 193 195 203 209 213 212 206 200 193 182 174 164 156 156 161 166 173 180 186 183 186 191 191 189 185 182 178 187 196 198 197 189 188 184 181 180 181 182 183 181 178 176 172 168 166 165 166 165 158 150 143 143 145 145 148 154 166 173 167 160 155 149 132 109 93 84 94 110 124 138 145 140 129 126 142 159 173 179 178 172 166 160 151 138 130 122 120 134 148 161 162 154 140 121 100 88 83 76 71 68 60 53 48 43 40 51 63 69 66 57 49 38 32 30 28 22 20 19 17 11 9 9 7 5 5 4 4 5 4 4 5 2 0 0 0 0 0 0 0 0 0 0 0 0 0 0 0 0 0 0 0 0 0 0 0 0 0 0 0 0 0 0 0 0 0 0 0 0 0 0 0 0 0 0 0 0 0 0 0 0 0 0 0 0 0 0 0 0 0 0 0 0 0 0 0 0 0 0 0 0 0 0 0 0 0 0 0 0 0 0 0 0 0 0 0 0 0 0 0 0 0 0 0 0 0 0 0 0 0 0 0 0 0 0 0 0 0 0 0 0 0 0 0 0 0 0 0 0 0 0 0 0 0 0 0 0 0 0 0 0 0 0 0 0 0 0 0 0 0 0 0 0 0 0 0 0 0 0 0 0 0 0 0 0 0 0 0 0 0 0 0 0 0 0 0 0 0 0 0 0 0 0 0 0 0 0
250 249 251 258 253 245 240 237 233 230 232 234 234 231 229 225 220 225 235 239 237 234 233 232 232 228 223 218 211 206 205 203 204 203 201 197 198 200 203 202 207 210 208 216 229 240 247 251 250 246 242 236 233 227 223 220 222 223 220 210 201 198 195 193 195 195 191 189 189 189 189 188 184 182 182 186 198 207 213 214 210 202 193 185 177 166 155 154 165 171 176 185 194 195 197 196 197 198 195 188 188 195 201 201 201 197 192 187 180 175 176 180 181 180 175 167 160 158 160 166 170 168 159 151 147 146 145 138 141 151 159 162 157 151 147 142 123 100 87 84 97 113 130 142 141 127 113 127 143 159 166 164 162 152 147 149 154 151 150 144 136 141 154 166 166 153 134 116 104 102 99 94 89 84 82 73 65 58 45 37 41 46 49 48 45 40 32 25 25 23 20 19 15 13 11 7 7 7 6 4 4 4 5 4 4 5 0 0 0 0 0 0 0 0 0 0 0 0 0 0 0 0 0 0 0 0 0 0 0 0 0 0 0 0 0 0 0 0 0 0 0 0 0 0 0 0 0 0 0 0 0 0 0 0 0 0 0 0 0 0 0 0 0 0 0 0 0 0 0 0 0 0 0 0 0 0 0 0 0 0 0 0 0 0 0 0 0 0 0 0 0 0 0 0 0 0 0 0 0 0 0 0 0 0 0 0 0 0 0 0 0 0 0 0 0 0 0 0 0 0 0 0 0 0 0 0 0 0 0 0 0 0 0 0 0 0 0 0 0 0 0 0 0 0 0 0 0 0 0 0 0 0 0 0 0 0 0 0 0 0 0 0 0 0 0 0 0 0 0 0 0 0 0 0 0 0 0 0 0 0
245 243 243 245 243 240 239 236 232 230 227 226 228 226 225 227 224 220 220 222 225 224 223 220 218 215 215 214 210 207 203 201 199 198 196 194 195 197 197 195 196 198 199 212 227 242 243 242 245 243 241 233 225 222 217 212 208 208 205 198 191 191 194 198 202 202 199 199 192 188 188 187 185 181 181 183 186 192 198 201 197 190 184 179 171 164 155 149 159 171 177 184 194 198 200 200 202 201 195 188 191 193 190 188 185 182 180 179 175 162 162 173 179 179 175 163 153 151 155 166 167 161 151 140 133 134 131 124 139 154 154 157 154 141 125 118 103 89 80 85 107 127 138 146 136 114 103 119 136 148 152 148 145 139 137 144 153 161 162 158 153 152 158 164 165 157 145 131 128 126 124 116 111 106 101 90 78 69 61 50 33 26 23 26 25 22 22 17 17 16 16 14 15 13 9 7 7 8 7 7 7 5 5 4 0 0 0 0 0 0 0 0 0 0 0 0 0 0 0 0 0 0 0 0 0 0 0 0 0 0 0 0 0 0 0 0 0 0 0 0 0 0 0 0 0 0 0 0 0 0 0 0 0 0 0 0 0 0 0 0 0 0 0 0 0 0 0 0 0 0 0 0 0 0 0 0 0 0 0 0 0 0 0 0 0 0 0 0 0 0 0 0 0 0 0 0 0 0 0 0 0 0 0 0 0 0 0 0 0 0 0 0 0 0 0 0 0 0 0 0 0 0 0 0 0 0 0 0 0 0 0 0 0 0 0 0 0 0 0 0 0 0 0 0 0 0 0 0 0 0 0 0 0 0 0 0 0 0 0 0 0 0 0 0 0 0 0 0 0 0 0 0 0 0 0 0 0 0 0 0
241 239 239 238 238 236 235 234 232 230 230 232 234 239 236 238 238 231 226 219 216 215 219 221 218 217 216 217 223 224 218 210 205 203 201 197 194 194 195 198 194 191 192 198 214 231 232 226 225 222 220 214 209 207 203 196 189 184 180 174 173 183 191 197 199 201 202 202 198 197 198 197 193 188 185 182 179 175 175 178 178 175 170 166 163 156 150 145 157 166 172 176 180 184 190 189 191 189 185 181 183 188 187 179 171 165 162 160 158 150 153 167 174 175 171 159 148 151 157 157 151 144 136 128 118 110 106 109 128 137 138 147 153 147 127 104 92 78 73 80 102 127 140 143 129 105 92 104 121 133 143 140 132 129 135 142 148 155 163 165 165 162 160 158 158 153 148 145 141 136 130 119 111 101 93 86 80 78 76 76 60 38 28 24 20 16 17 13 12 12 12 11 11 9 10 9 7 7 6 7 7 2 1 0 0 0 0 0 0 0 0 0 0 0 0 0 0 0 0 0 0 0 0 0 0 0 0 0 0 0 0 0 0 0 0 0 0 0 0 0 0 0 0 0 0 0 0 0 0 0 0 0 0 0 0 0 0 0 0 0 0 0 0 0 0 0 0 0 0 0 0 0 0 0 0 0 0 0 0 0 0 0 0 0 0 0 0 0 0 0 0 0 0 0 0 0 0 0 0 0 0 0 0 0 0 0 0 0 0 0 0 0 0 0 0 0 0 0 0 0 0 0 0 0 0 0 0 0 0 0 0 0 0 0 0 0 0 0 0 0 0 0 0 0 0 0 0 0 0 0 0 0 0 0 0 0 0 0 0 0 0 0 0 0 0 0 0 0 0 0 0 0 0 0 0 0 0 0 0 0
237 238 239 241 241 239 237 239 240 238 238 240 239 242 243 248 254 250 244 234 228 235 243 244 244 241 238 235 234 229 220 215 210 207 204 198 196 203 208 215 216 206 197 190 194 206 209 207 205 197 191 185 184 187 186 185 186 188 185 174 167 167 172 178 187 196 197 198 201 207 212 212 210 208 202 190 184 178 174 169 162 156 154 153 151 144 140 145 155 159 160 166 167 172 175 179 182 182 178 172 172 179 187 183 176 167 158 150 140 139 158 172 176 177 173 159 142 144 153 148 140 130 117 106 99 92 93 109 127 120 119 137 149 146 129 104 88 73 70 81 101 121 134 135 120 103 84 92 114 129 138 137 127 128 135 133 139 146 153 159 164 161 153 144 140 139 140 140 136 130 123 118 105 99 92 85 79 76 74 74 75 68 55 40 29 21 16 12 13 13 12 11 11 10 9 7 6 7 5 4 3 0 0 0 0 0 0 0 0 0 0 0 0 0 0 0 0 0 0 0 0 0 0 0 0 0 0 0 0 0 0 0 0 0 0 0 0 0 0 0 0 0 0 0 0 0 0 0 0 0 0 0 0 0 0 0 0 0 0 0 0 0 0 0 0 0 0 0 0 0 0 0 0 0 0 0 0 0 0 0 0 0 0 0 0 0 0 0 0 0 0 0 0 0 0 0 0 0 0 0 0 0 0 0 0 0 0 0 0 0 0 0 0 0 0 0 0 0 0 0 0 0 0 0 0 0 0 0 0 0 0 0 0 0 0 0 0 0 0 0 0 0 0 0 0 0 0 0 0 0 0 0 0 0 0 0 0 0 0 0 0 0 0 0 0 0 0 0 0 0 0 0 0 0 0 0 0 0 0 0
234 239 243 245 246 244 245 248 252 253 252 251 245 246 248 255 265 263 253 244 238 244 256 262 262 261 254 246 235 229 223 215 213 212 209 203 204 210 218 225 223 215 205 193 187 190 188 189 193 194 200 207 207 208 208 206 212 215 209 198 186 172 162 159 165 178 178 187 195 205 213 217 222 226 220 209 202 191 181 172 162 156 150 144 143 137 135 142 148 148 148 151 152 158 166 173 178 184 179 170 163 168 172 176 170 165 160 151 138 135 156 168 173 171 168 163 150 131 124 128 126 118 107 95 85 81 95 110 117 106 104 125 141 134 114 97 84 69 65 74 88 109 119 118 110 94 79 89 107 123 134 131 120 121 125 124 131 138 140 147 152 154 146 131 121 117 122 129 127 117 102 95 90 89 89 84 80 76 71 66 65 69 67 53 38 27 21 16 14 15 15 13 13 10 7 4 4 4 4 5 4 0 0 0 0 0 0 0 0 0 0 0 0 0 0 0 0 0 0 0 0 0 0 0 0 0 0 0 0 0 0 0 0 0 0 0 0 0 0 0 0 0 0 0 0 0 0 0 0 0 0 0 0 0 0 0 0 0 0 0 0 0 0 0 0 0 0 0 0 0 0 0 0 0 0 0 0 0 0 0 0 0 0 0 0 0 0 0 0 0 0 0 0 0 0 0 0 0 0 0 0 0 0 0 0 0 0 0 0 0 0 0 0 0 0 0 0 0 0 0 0 0 0 0 0 0 0 0 0 0 0 0 0 0 0 0 0 0 0 0 0 0 0 0 0 0 0 0 0 0 0 0 0 0 0 0 0 0 0 0 0 0 0 0 0 0 0 0 0 0 0 0 0 0 0 0 0 0 0 0
235 234 239 245 246 246 246 250 258 263 264 262 265 266 262 268 275 274 268 260 250 256 266 273 274 267 262 254 240 231 228 223 219 215 211 209 212 215 220 224 220 216 210 203 198 196 199 213 226 238 243 242 239 235 230 228 229 232 228 216 206 192 175 159 153 162 161 165 175 185 192 197 206 215 220 214 203 191 181 171 162 155 148 142 138 133 130 133 134 136 136 140 144 151 159 167 171 178 181 175 168 161 157 159 155 152 148 145 134 129 145 159 164 160 154 153 154 142 121 106 101 100 103 96 81 76 91 100 98 90 94 109 122 122 105 93 81 73 66 66 71 77 83 92 97 88 70 79 93 107 122 131 125 117 112 118 130 133 128 129 132 139 138 131 116 104 105 113 116 103 90 78 76 80 86 85 81 75 69 66 58 54 51 44 37 31 26 21 17 17 17 14 11 8 8 8 7 5 3 2 1 0 0 0 0 0 0 0 0 0 0 0 0 0 0 0 0 0 0 0 0 0 0 0 0 0 0 0 0 0 0 0 0 0 0 0 0 0 0 0 0 0 0 0 0 0 0 0 0 0 0 0 0 0 0 0 0 0 0 0 0 0 0 0 0 0 0 0 0 0 0 0 0 0 0 0 0 0 0 0 0 0 0 0 0 0 0 0 0 0 0 0 0 0 0 0 0 0 0 0 0 0 0 0 0 0 0 0 0 0 0 0 0 0 0 0 0 0 0 0 0 0 0 0 0 0 0 0 0 0 0 0 0 0 0 0 0 0 0 0 0 0 0 0 0 0 0 0 0 0 0 0 0 0 0 0 0 0 0 0 0 0 0 0 0 0 0 0 0 0 0 0 0 0 0 0 0 0 0 0
226 231 236 243 249 251 254 251 255 263 268 272 277 281 283 287 291 288 281 272 266 265 273 276 270 264 261 258 250 240 234 232 224 219 212 211 217 224 223 224 223 222 218 222 230 240 253 257 259 259 256 254 250 249 245 242 244 243 233 218 206 196 188 169 158 154 156 157 157 162 165 164 165 173 188 196 194 185 174 163 156 146 141 139 136 131 126 122 125 128 127 130 136 144 152 159 163 167 172 174 170 160 151 143 139 136 134 135 132 124 136 152 155 154 146 139 142 140 127 111 96 86 92 99 81 70 86 94 87 80 80 92 107 117 106 93 83 75 69 66 62 59 57 65 78 75 59 62 80 93 106 121 129 117 109 122 131 129 120 111 113 118 122 120 111 99 91 92 93 91 88 79 73 76 82 86 82 76 68 63 55 45 38 35 29 24 20 18 16 13 12 12 8 10 7 16 12 6 4 1 0 0 0 0 0 0 0 0 0 0 0 0 0 0 0 0 0 0 0 0 0 0 0 0 0 0 0 0 0 0 0 0 0 0 0 0 0 0 0 0 0 0 0 0 0 0 0 0 0 0 0 0 0 0 0 0 0 0 0 0 0 0 0 0 0 0 0 0 0 0 0 0 0 0 0 0 0 0 0 0 0 0 0 0 0 0 0 0 0 0 0 0 0 0 0 0 0 0 0 0 0 0 0 0 0 0 0 0 0 0 0 0 0 0 0 0 0 0 0 0 0 0 0 0 0 0 0 0 0 0 0 0 0 0 0 0 0 0 0 0 0 0 0 0 0 0 0 0 0 0 0 0 0 0 0 0 0 0 0 0 0 0 0 0 0 0 0 0 0 0 0 0 0 0 0 0 0 0 0 0
223 234 243 251 257 265 271 266 266 274 276 278 283 288 294 300 300 293 285 276 270 272 276 275 268 261 256 251 247 242 236 231 222 215 216 220 230 235 230 229 233 240 244 248 254 264 269 264 263 263 258 254 251 249 248 247 249 242 228 214 205 200 199 190 180 179 178 180 179 177 171 163 155 148 152 159 169 176 173 164 153 141 130 129 124 121 123 117 113 112 114 120 127 136 142 146 149 153 157 159 161 159 150 141 133 127 123 122 121 122 134 144 148 146 137 126 126 127 121 111 101 91 82 81 76 67 71 82 82 75 71 79 88 92 90 88 86 83 81 77 70 64 54 50 58 61 51 54 69 83 97 114 126 114 107 119 128 127 116 104 95 99 101 102 103 96 85 81 79 80 82 79 72 73 77 83 85 82 77 73 67 57 47 41 34 25 20 16 12 12 12 11 13 13 1 0 1 3 3 1 0 0 0 0 0 0 0 0 0 0 0 0 0 0 0 0 0 0 0 0 0 0 0 0 0 0 0 0 0 0 0 0 0 0 0 0 0 0 0 0 0 0 0 0 0 0 0 0 0 0 0 0 0 0 0 0 0 0 0 0 0 0 0 0 0 0 0 0 0 0 0 0 0 0 0 0 0 0 0 0 0 0 0 0 0 0 0 0 0 0 0 0 0 0 0 0 0 0 0 0 0 0 0 0 0 0 0 0 0 0 0 0 0 0 0 0 0 0 0 0 0 0 0 0 0 0 0 0 0 0 0 0 0 0 0 0 0 0 0 0 0 0 0 0 0 0 0 0 0 0 0 0 0 0 0 0 0 0 0 0 0 0 0 0 0 0 0 0 0 0 0 0 0 0 0 0 0 0 0 0
211 226 241 257 274 285 288 284 281 282 283 283 285 288 292 296 298 292 284 273 268 272 274 272 272 269 259 251 243 235 233 227 219 220 226 234 245 242 235 238 249 259 262 264 264 264 260 257 257 256 254 246 237 241 242 243 243 239 228 219 213 214 211 206 203 206 205 206 207 204 196 185 176 166 154 144 141 159 166 157 145 134 120 114 109 108 108 108 106 100 99 101 104 111 122 131 134 136 140 143 146 149 146 139 134 128 123 118 113 120 134 137 137 135 129 123 116 118 117 118 118 111 98 90 84 75 61 60 68 69 63 67 74 81 83 87 91 92 89 80 69 61 53 47 48 54 48 54 68 83 102 118 123 109 104 117 123 123 114 105 96 90 85 87 92 93 87 79 68 64 68 69 61 63 70 80 85 81 77 76 75 67 53 44 35 30 24 18 10 11 10 9 13 21 6 0 0 1 3 2 0 0 0 0 0 0 0 0 0 0 0 0 0 0 0 0 0 0 0 0 0 0 0 0 0 0 0 0 0 0 0 0 0 0 0 0 0 0 0 0 0 0 0 0 0 0 0 0 0 0 0 0 0 0 0 0 0 0 0 0 0 0 0 0 0 0 0 0 0 0 0 0 0 0 0 0 0 0 0 0 0 0 0 0 0 0 0 0 0 0 0 0 0 0 0 0 0 0 0 0 0 0 0 0 0 0 0 0 0 0 0 0 0 0 0 0 0 0 0 0 0 0 0 0 0 0 0 0 0 0 0 0 0 0 0 0 0 0 0 0 0 0 0 0 0 0 0 0 0 0 0 0 0 0 0 0 0 0 0 0 0 0 0 0 0 0 0 0 0 0 0 0 0 0 0 0 0 0 0 0
203 216 236 259 277 290 297 294 290 288 289 288 286 287 289 289 290 286 281 272 265 265 266 268 270 271 263 254 244 234 227 223 223 228 237 247 250 244 241 246 259 263 262 258 253 248 239 234 238 236 234 234 223 225 227 227 234 237 233 223 217 216 218 218 221 226 226 224 219 211 206 198 186 179 169 147 135 147 148 143 132 122 117 121 125 121 109 103 101 105 109 108 102 100 101 109 119 123 125 130 134 135 137 133 129 129 127 119 110 114 126 129 127 127 122 115 107 108 113 113 114 113 113 113 108 96 75 58 57 61 64 66 72 78 86 95 102 102 93 83 74 71 66 57 48 48 48 55 69 87 103 121 123 102 97 111 118 117 110 102 96 89 84 76 76 86 88 83 76 68 57 52 51 57 71 82 83 79 74 68 62 55 49 41 34 30 24 14 10 10 8 7 8 14 8 3 4 3 2 2 0 0 0 0 0 0 0 0 0 0 0 0 0 0 0 0 0 0 0 0 0 0 0 0 0 0 0 0 0 0 0 0 0 0 0 0 0 0 0 0 0 0 0 0 0 0 0 0 0 0 0 0 0 0 0 0 0 0 0 0 0 0 0 0 0 0 0 0 0 0 0 0 0 0 0 0 0 0 0 0 0 0 0 0 0 0 0 0 0 0 0 0 0 0 0 0 0 0 0 0 0 0 0 0 0 0 0 0 0 0 0 0 0 0 0 0 0 0 0 0 0 0 0 0 0 0 0 0 0 0 0 0 0 0 0 0 0 0 0 0 0 0 0 0 0 0 0 0 0 0 0 0 0 0 0 0 0 0 0 0 0 0 0 0 0 0 0 0 0 0 0 0 0 0 0 0 0 0 0 0
189 207 228 248 267 283 295 299 293 292 290 288 286 286 289 287 285 281 278 273 266 260 258 258 259 260 255 248 240 232 225 228 234 242 250 258 253 243 239 245 253 252 245 243 239 239 232 223 223 221 219 222 213 212 212 209 217 224 224 219 209 205 207 222 234 240 237 233 228 220 210 201 192 184 169 147 130 135 131 127 122 121 136 154 154 148 133 124 121 124 122 116 109 105 102 97 101 111 112 113 120 125 127 123 118 117 117 117 109 109 120 121 121 121 115 110 104 101 106 101 102 103 110 121 118 100 80 61 68 82 83 85 85 81 86 99 109 112 102 92 88 85 72 57 42 38 44 56 71 86 104 121 116 94 89 104 112 109 103 95 89 83 83 76 71 82 87 85 80 69 53 47 46 57 73 78 77 76 69 61 57 53 42 35 32 32 24 15 13 10 7 8 10 13 11 13 9 6 2 1 0 0 0 0 0 0 0 0 0 0 0 0 0 0 0 0 0 0 0 0 0 0 0 0 0 0 0 0 0 0 0 0 0 0 0 0 0 0 0 0 0 0 0 0 0 0 0 0 0 0 0 0 0 0 0 0 0 0 0 0 0 0 0 0 0 0 0 0 0 0 0 0 0 0 0 0 0 0 0 0 0 0 0 0 0 0 0 0 0 0 0 0 0 0 0 0 0 0 0 0 0 0 0 0 0 0 0 0 0 0 0 0 0 0 0 0 0 0 0 0 0 0 0 0 0 0 0 0 0 0 0 0 0 0 0 0 0 0 0 0 0 0 0 0 0 0 0 0 0 0 0 0 0 0 0 0 0 0 0 0 0 0 0 0 0 0 0 0 0 0 0 0 0 0 0 0 0 0 0 0
188 204 224 239 252 268 283 290 293 291 288 285 285 283 281 280 279 275 274 272 270 267 262 255 250 249 244 239 233 228 227 234 242 254 265 266 255 244 235 233 237 236 233 229 226 229 228 221 215 214 213 211 205 202 198 195 197 201 203 202 197 190 203 220 233 236 235 231 224 217 209 200 187 172 156 144 132 129 129 133 143 156 176 182 173 161 148 138 131 126 122 118 113 111 107 97 92 92 92 91 95 110 111 102 95 92 94 105 108 102 107 115 118 118 114 110 101 93 90 90 96 94 101 112 116 112 96 69 61 82 92 96 94 89 87 93 100 102 99 98 103 100 88 73 52 40 43 53 66 79 98 115 114 91 83 98 103 98 99 94 83 75 71 68 67 78 87 86 77 69 58 49 43 52 64 66 62 63 64 63 60 52 42 31 26 27 23 15 11 7 6 7 7 11 18 20 9 6 3 0 0 0 0 0 0 0 0 0 0 0 0 0 0 0 0 0 0 0 0 0 0 0 0 0 0 0 0 0 0 0 0 0 0 0 0 0 0 0 0 0 0 0 0 0 0 0 0 0 0 0 0 0 0 0 0 0 0 0 0 0 0 0 0 0 0 0 0 0 0 0 0 0 0 0 0 0 0 0 0 0 0 0 0 0 0 0 0 0 0 0 0 0 0 0 0 0 0 0 0 0 0 0 0 0 0 0 0 0 0 0 0 0 0 0 0 0 0 0 0 0 0 0 0 0 0 0 0 0 0 0 0 0 0 0 0 0 0 0 0 0 0 0 0 0 0 0 0 0 0 0 0 0 0 0 0 0 0 0 0 0 0 0 0 0 0 0 0 0 0 0 0 0 0 0 0 0 0 0 0 0
179 192 208 224 240 255 272 279 287 290 288 287 288 285 281 278 276 269 269 264 262 264 265 262 257 252 247 240 235 231 233 241 247 254 262 261 252 241 233 228 227 228 229 229 227 223 220 216 219 227 230 227 222 219 214 201 192 190 188 185 181 177 188 205 216 219 217 213 206 198 191 184 170 154 152 153 155 150 149 166 184 194 197 191 178 165 150 141 142 142 135 138 139 135 130 116 100 96 101 99 86 90 94 86 80 78 77 90 100 97 104 113 118 117 112 108 101 94 82 81 85 79 83 98 106 110 109 88 60 65 85 92 87 80 82 87 89 87 85 92 104 105 97 83 68 50 37 41 52 70 88 105 107 85 81 92 96 89 87 89 84 73 61 59 70 81 86 84 75 64 59 53 41 46 49 50 49 54 56 56 49 41 35 30 27 24 17 10 7 7 7 6 6 10 7 4 0 0 0 0 0 0 0 0 0 0 0 0 0 0 0 0 0 0 0 0 0 0 0 0 0 0 0 0 0 0 0 0 0 0 0 0 0 0 0 0 0 0 0 0 0 0 0 0 0 0 0 0 0 0 0 0 0 0 0 0 0 0 0 0 0 0 0 0 0 0 0 0 0 0 0 0 0 0 0 0 0 0 0 0 0 0 0 0 0 0 0 0 0 0 0 0 0 0 0 0 0 0 0 0 0 0 0 0 0 0 0 0 0 0 0 0 0 0 0 0 0 0 0 0 0 0 0 0 0 0 0 0 0 0 0 0 0 0 0 0 0 0 0 0 0 0 0 0 0 0 0 0 0 0 0 0 0 0 0 0 0 0 0 0 0 0 0 0 0 0 0 0 0 0 0 0 0 0 0 0 0 0 0 0
166 177 192 208 224 237 251 263 274 285 289 291 293 290 287 283 279 275 271 266 259 257 257 258 255 252 247 241 237 233 240 251 254 252 254 250 245 238 233 233 235 244 253 254 248 243 240 233 232 237 239 240 236 234 226 219 212 204 200 199 188 175 173 177 187 190 187 184 178 168 161 161 160 164 175 182 177 169 176 193 203 204 197 185 173 161 158 161 163 164 163 164 166 167 165 156 149 141 131 109 90 84 86 88 88 80 74 82 96 95 101 113 120 117 112 109 105 102 102 97 91 80 68 77 89 99 105 95 66 59 80 76 52 42 51 73 81 74 72 84 100 105 96 83 73 62 47 36 38 54 76 96 98 81 74 86 89 78 76 84 83 70 53 59 74 84 82 80 71 56 51 49 41 30 31 33 36 39 39 41 37 35 32 28 25 18 13 11 6 6 5 5 6 3 0 0 0 0 0 0 0 0 0 0 0 0 0 0 0 0 0 0 0 0 0 0 0 0 0 0 0 0 0 0 0 0 0 0 0 0 0 0 0 0 0 0 0 0 0 0 0 0 0 0 0 0 0 0 0 0 0 0 0 0 0 0 0 0 0 0 0 0 0 0 0 0 0 0 0 0 0 0 0 0 0 0 0 0 0 0 0 0 0 0 0 0 0 0 0 0 0 0 0 0 0 0 0 0 0 0 0 0 0 0 0 0 0 0 0 0 0 0 0 0 0 0 0 0 0 0 0 0 0 0 0 0 0 0 0 0 0 0 0 0 0 0 0 0 0 0 0 0 0 0 0 0 0 0 0 0 0 0 0 0 0 0 0 0 0 0 0 0 0 0 0 0 0 0 0 0 0 0 0 0 0 0 0 0 0 0
155 165 181 193 204 215 228 237 254 273 282 291 295 292 291 289 288 286 278 272 266 259 256 255 253 251 245 240 235 244 259 263 264 257 250 243 240 239 246 252 255 261 265 263 259 258 257 249 241 242 243 239 236 232 227 222 221 224 229 223 211 190 177 169 166 164 165 163 159 160 170 178 186 188 194 201 195 189 191 198 203 200 196 188 177 171 174 178 179 179 179 180 184 186 182 177 177 171 156 137 124 118 126 121 105 86 73 75 89 90 97 114 118 118 117 117 115 112 111 115 117 108 91 69 67 76 77 72 60 52 62 51 37 36 34 53 62 63 74 99 108 106 94 80 72 63 53 42 31 45 64 82 89 79 68 72 74 64 67 77 74 61 49 62 75 81 75 66 62 53 45 35 30 21 17 19 21 24 26 28 29 31 25 22 19 15 13 9 6 6 6 6 6 3 0 0 0 0 0 0 0 0 0 0 0 0 0 0 0 0 0 0 0 0 0 0 0 0 0 0 0 0 0 0 0 0 0 0 0 0 0 0 0 0 0 0 0 0 0 0 0 0 0 0 0 0 0 0 0 0 0 0 0 0 0 0 0 0 0 0 0 0 0 0 0 0 0 0 0 0 0 0 0 0 0 0 0 0 0 0 0 0 0 0 0 0 0 0 0 0 0 0 0 0 0 0 0 0 0 0 0 0 0 0 0 0 0 0 0 0 0 0 0 0 0 0 0 0 0 0 0 0 0 0 0 0 0 0 0 0 0 0 0 0 0 0 0 0 0 0 0 0 0 0 0 0 0 0 0 0 0 0 0 0 0 0 0 0 0 0 0 0 0 0 0 0 0 0 0 0 0 0 0 0 0 0 0 0 0 0
156 169 178 181 187 197 206 222 244 264 279 292 297 295 295 296 296 292 284 276 270 269 267 264 260 257 249 242 239 253 266 268 265 258 251 245 242 245 253 259 258 258 256 250 245 248 250 249 242 238 236 232 224 219 214 209 212 219 228 223 205 187 174 169 169 171 172 174 177 184 193 197 199 200 205 208 203 201 196 192 191 193 190 185 179 181 187 189 189 188 185 179 179 181 178 178 180 176 169 165 167 166 165 154 131 104 84 73 77 82 99 109 115 117 119 119 118 115 114 112 114 118 117 102 77 53 47 49 43 40 41 41 49 43 34 45 67 78 82 94 101 98 91 84 76 64 51 42 34 34 39 45 58 71 71 62 59 53 55 61 60 47 49 64 76 76 69 58 47 43 36 29 22 17 18 16 13 11 12 13 16 24 26 18 14 14 12 8 7 6 5 5 3 0 0 0 0 0 0 0 0 0 0 0 0 0 0 0 0 0 0 0 0 0 0 0 0 0 0 0 0 0 0 0 0 0 0 0 0 0 0 0 0 0 0 0 0 0 0 0 0 0 0 0 0 0 0 0 0 0 0 0 0 0 0 0 0 0 0 0 0 0 0 0 0 0 0 0 0 0 0 0 0 0 0 0 0 0 0 0 0 0 0 0 0 0 0 0 0 0 0 0 0 0 0 0 0 0 0 0 0 0 0 0 0 0 0 0 0 0 0 0 0 0 0 0 0 0 0 0 0 0 0 0 0 0 0 0 0 0 0 0 0 0 0 0 0 0 0 0 0 0 0 0 0 0 0 0 0 0 0 0 0 0 0 0 0 0 0 0 0 0 0 0 0 0 0 0 0 0 0 0 0 0 0 0 0 0 0 0
153 165 170 169 171 178 195 215 234 254 273 289 297 300 300 293 292 288 282 277 269 267 269 270 269 263 256 250 246 251 261 267 264 262 258 257 254 249 247 244 241 243 242 236 230 229 232 234 231 226 221 220 214 203 202 196 193 200 204 198 185 177 172 174 186 199 206 208 207 205 208 206 204 202 199 196 195 193 191 185 180 183 184 181 181 186 188 188 184 181 178 177 172 165 166 165 168 169 170 172 176 176 172 165 154 135 115 92 74 74 93 108 111 116 118 119 118 117 114 110 110 112 116 113 79 49 56 74 73 64 61 69 74 55 39 49 66 79 80 81 80 74 70 71 72 71 65 59 46 30 22 23 30 54 75 77 71 64 54 45 43 39 52 67 74 68 59 53 43 37 35 29 25 27 28 16 11 9 8 8 7 11 14 13 10 10 9 9 7 6 5 3 0 0 0 0 0 0 0 0 0 0 0 0 0 0 0 0 0 0 0 0 0 0 0 0 0 0 0 0 0 0 0 0 0 0 0 0 0 0 0 0 0 0 0 0 0 0 0 0 0 0 0 0 0 0 0 0 0 0 0 0 0 0 0 0 0 0 0 0 0 0 0 0 0 0 0 0 0 0 0 0 0 0 0 0 0 0 0 0 0 0 0 0 0 0 0 0 0 0 0 0 0 0 0 0 0 0 0 0 0 0 0 0 0 0 0 0 0 0 0 0 0 0 0 0 0 0 0 0 0 0 0 0 0 0 0 0 0 0 0 0 0 0 0 0 0 0 0 0 0 0 0 0 0 0 0 0 0 0 0 0 0 0 0 0 0 0 0 0 0 0 0 0 0 0 0 0 0 0 0 0 0 0 0 0 0 0 0 0
147 157 160 159 162 172 190 205 222 239 260 279 293 300 299 293 288 284 283 283 277 269 266 269 271 268 265 255 247 247 252 261 268 269 264 259 252 244 237 234 229 228 232 231 226 220 216 218 216 213 208 204 201 196 192 187 182 182 181 180 174 175 190 209 216 221 225 225 222 221 220 215 211 205 199 194 188 181 181 174 170 171 172 174 180 183 184 179 175 170 167 165 158 155 153 154 151 152 159 166 173 171 164 158 154 143 128 108 84 73 79 90 101 109 113 110 111 113 110 105 100 102 111 110 78 47 59 82 96 100 97 92 84 66 41 41 52 58 67 72 64 54 48 50 56 59 65 67 65 56 35 22 24 47 74 84 88 82 71 56 40 34 46 62 73 64 50 42 38 37 36 37 38 37 35 25 20 21 14 11 10 9 15 13 10 10 9 6 5 5 6 5 0 0 0 0 0 0 0 0 0 0 0 0 0 0 0 0 0 0 0 0 0 0 0 0 0 0 0 0 0 0 0 0 0 0 0 0 0 0 0 0 0 0 0 0 0 0 0 0 0 0 0 0 0 0 0 0 0 0 0 0 0 0 0 0 0 0 0 0 0 0 0 0 0 0 0 0 0 0 0 0 0 0 0 0 0 0 0 0 0 0 0 0 0 0 0 0 0 0 0 0 0 0 0 0 0 0 0 0 0 0 0 0 0 0 0 0 0 0 0 0 0 0 0 0 0 0 0 0 0 0 0 0 0 0 0 0 0 0 0 0 0 0 0 0 0 0 0 0 0 0 0 0 0 0 0 0 0 0 0 0 0 0 0 0 0 0 0 0 0 0 0 0 0 0 0 0 0 0 0 0 0 0 0 0 0 0 0 0
142 147 147 147 154 167 188 203 216 229 248 270 285 296 299 293 288 292 298 295 289 282 269 263 263 262 259 253 248 247 251 257 264 267 264 257 246 241 238 235 232 228 225 222 222 213 208 207 207 205 200 198 198 205 208 200 191 188 185 185 179 184 206 221 229 231 231 230 227 225 221 218 216 206 199 192 184 175 171 169 167 168 164 165 171 174 173 169 164 159 154 151 151 147 142 139 139 144 150 158 164 163 154 144 138 132 115 97 80 67 67 69 83 90 86 77 75 79 87 96 98 98 103 109 100 67 52 58 82 106 110 107 98 79 52 38 33 38 52 62 65 58 41 30 38 43 45 50 58 69 64 33 20 30 54 71 84 88 88 74 49 33 42 59 63 53 43 37 34 34 31 32 38 39 38 31 30 33 30 24 15 12 13 15 13 11 9 5 4 5 3 1 0 0 0 0 0 0 0 0 0 0 0 0 0 0 0 0 0 0 0 0 0 0 0 0 0 0 0 0 0 0 0 0 0 0 0 0 0 0 0 0 0 0 0 0 0 0 0 0 0 0 0 0 0 0 0 0 0 0 0 0 0 0 0 0 0 0 0 0 0 0 0 0 0 0 0 0 0 0 0 0 0 0 0 0 0 0 0 0 0 0 0 0 0 0 0 0 0 0 0 0 0 0 0 0 0 0 0 0 0 0 0 0 0 0 0 0 0 0 0 0 0 0 0 0 0 0 0 0 0 0 0 0 0 0 0 0 0 0 0 0 0 0 0 0 0 0 0 0 0 0 0 0 0 0 0 0 0 0 0 0 0 0 0 0 0 0 0 0 0 0 0 0 0 0 0 0 0 0 0 0 0 0 0 0 0 0 0 0
142 141 142 144 151 168 181 195 209 224 244 263 280 295 299 297 299 304 313 314 301 290 280 272 265 261 257 253 251 247 251 254 257 259 258 249 240 238 242 245 244 241 238 230 227 220 213 204 202 200 202 207 217 223 225 220 214 213 211 203 187 182 203 222 231 231 230 227 226 223 221 218 213 202 193 186 180 178 179 178 177 171 167 164 159 157 158 156 152 146 141 139 139 142 142 134 131 136 145 150 156 158 155 144 133 122 103 79 75 82 83 73 69 70 69 76 75 70 63 70 84 88 90 96 101 94 70 53 55 92 119 120 108 94 73 63 57 38 33 35 36 31 26 22 27 32 29 27 31 42 50 39 22 21 30 45 58 72 83 73 44 28 39 56 57 44 39 34 28 28 27 26 32 35 33 32 32 32 29 26 19 11 9 13 15 12 7 6 5 4 5 0 0 0 0 0 0 0 0 0 0 0 0 0 0 0 0 0 0 0 0 0 0 0 0 0 0 0 0 0 0 0 0 0 0 0 0 0 0 0 0 0 0 0 0 0 0 0 0 0 0 0 0 0 0 0 0 0 0 0 0 0 0 0 0 0 0 0 0 0 0 0 0 0 0 0 0 0 0 0 0 0 0 0 0 0 0 0 0 0 0 0 0 0 0 0 0 0 0 0 0 0 0 0 0 0 0 0 0 0 0 0 0 0 0 0 0 0 0 0 0 0 0 0 0 0 0 0 0 0 0 0 0 0 0 0 0 0 0 0 0 0 0 0 0 0 0 0 0 0 0 0 0 0 0 0 0 0 0 0 0 0 0 0 0 0 0 0 0 0 0 0 0 0 0 0 0 0 0 0 0 0 0 0 0 0 0 0 0 0
139 137 138 143 151 162 174 191 204 218 232 256 276 290 295 295 297 300 304 307 301 291 285 280 274 269 264 257 250 246 248 249 248 248 247 242 235 231 230 232 237 236 233 229 222 219 212 206 202 204 214 220 225 229 232 235 236 241 234 218 197 194 210 226 230 228 221 216 217 219 217 214 209 200 193 184 186 189 187 185 180 172 167 160 154 151 150 149 144 139 139 135 132 133 135 130 125 127 134 141 148 153 152 149 140 127 112 88 79 83 94 97 95 101 107 110 105 96 84 65 61 62 66 73 77 70 58 55 62 96 123 128 117 103 96 99 98 89 77 65 55 45 35 24 18 19 21 19 19 21 23 24 18 17 19 30 43 53 61 63 38 25 31 44 49 40 33 30 25 24 23 28 35 36 34 34 31 29 25 21 16 10 9 15 16 12 10 11 8 5 2 0 0 0 0 0 0 0 0 0 0 0 0 0 0 0 0 0 0 0 0 0 0 0 0 0 0 0 0 0 0 0 0 0 0 0 0 0 0 0 0 0 0 0 0 0 0 0 0 0 0 0 0 0 0 0 0 0 0 0 0 0 0 0 0 0 0 0 0 0 0 0 0 0 0 0 0 0 0 0 0 0 0 0 0 0 0 0 0 0 0 0 0 0 0 0 0 0 0 0 0 0 0 0 0 0 0 0 0 0 0 0 0 0 0 0 0 0 0 0 0 0 0 0 0 0 0 0 0 0 0 0 0 0 0 0 0 0 0 0 0 0 0 0 0 0 0 0 0 0 0 0 0 0 0 0 0 0 0 0 0 0 0 0 0 0 0 0 0 0 0 0 0 0 0 0 0 0 0 0 0 0 0 0 0 0 0 0 0 0
133 134 138 142 148 156 172 183 196 211 225 247 268 284 291 292 292 289 284 284 282 275 270 273 274 274 269 258 250 244 242 243 241 240 238 238 234 229 226 225 226 224 223 221 218 212 208 206 204 206 212 218 223 223 229 239 245 246 237 218 207 208 219 230 231 228 221 211 208 209 204 203 203 200 195 191 190 192 194 190 182 173 167 160 156 152 154 152 145 144 146 140 133 130 126 121 121 124 129 139 144 146 146 144 137 129 112 99 86 84 98 105 108 115 120 121 114 105 93 78 80 78 72 66 58 57 61 67 77 100 127 133 125 112 108 108 109 105 99 90 81 70 54 34 20 18 17 17 18 18 16 15 15 15 17 20 30 36 41 49 39 23 20 29 36 36 32 28 24 21 20 27 36 35 34 33 31 30 28 22 14 9 13 19 16 11 13 12 8 5 0 0 0 0 0 0 0 0 0 0 0 0 0 0 0 0 0 0 0 0 0 0 0 0 0 0 0 0 0 0 0 0 0 0 0 0 0 0 0 0 0 0 0 0 0 0 0 0 0 0 0 0 0 0 0 0 0 0 0 0 0 0 0 0 0 0 0 0 0 0 0 0 0 0 0 0 0 0 0 0 0 0 0 0 0 0 0 0 0 0 0 0 0 0 0 0 0 0 0 0 0 0 0 0 0 0 0 0 0 0 0 0 0 0 0 0 0 0 0 0 0 0 0 0 0 0 0 0 0 0 0 0 0 0 0 0 0 0 0 0 0 0 0 0 0 0 0 0 0 0 0 0 0 0 0 0 0 0 0 0 0 0 0 0 0 0 0 0 0 0 0 0 0 0 0 0 0 0 0 0 0 0 0 0 0 0 0 0 0 0
131 135 138 141 146 153 165 175 193 209 222 241 261 276 291 296 295 290 285 282 279 271 263 257 259 261 259 254 248 243 241 239 240 242 246 257 258 252 243 231 224 222 224 223 221 218 219 220 214 209 209 213 213 211 221 233 241 238 227 215 216 220 226 234 236 229 220 211 202 195 194 191 195 192 191 189 186 188 190 188 182 172 168 165 160 161 164 163 156 150 146 142 141 141 135 123 120 123 125 131 138 144 148 143 136 125 109 99 93 90 89 99 109 111 113 116 114 105 95 91 102 109 107 98 85 85 88 86 92 109 129 132 128 122 117 109 101 94 93 89 82 78 70 54 34 19 17 16 17 17 17 15 14 14 16 16 20 25 32 41 35 22 16 18 25 32 30 24 22 22 20 28 36 34 33 34 31 30 30 22 11 5 12 20 16 9 10 9 5 2 0 0 0 0 0 0 0 0 0 0 0 0 0 0 0 0 0 0 0 0 0 0 0 0 0 0 0 0 0 0 0 0 0 0 0 0 0 0 0 0 0 0 0 0 0 0 0 0 0 0 0 0 0 0 0 0 0 0 0 0 0 0 0 0 0 0 0 0 0 0 0 0 0 0 0 0 0 0 0 0 0 0 0 0 0 0 0 0 0 0 0 0 0 0 0 0 0 0 0 0 0 0 0 0 0 0 0 0 0 0 0 0 0 0 0 0 0 0 0 0 0 0 0 0 0 0 0 0 0 0 0 0 0 0 0 0 0 0 0 0 0 0 0 0 0 0 0 0 0 0 0 0 0 0 0 0 0 0 0 0 0 0 0 0 0 0 0 0 0 0 0 0 0 0 0 0 0 0 0 0 0 0 0 0 0 0 0 0 0 0
131 135 137 141 144 152 163 175 189 204 217 238 257 277 295 299 295 291 286 284 277 270 259 254 250 250 250 248 244 246 248 247 249 254 266 272 266 254 243 233 228 229 234 236 234 231 232 230 224 219 216 211 202 199 207 218 224 223 210 197 204 206 213 226 230 230 220 211 206 192 183 175 179 182 181 178 175 178 180 180 173 165 161 161 162 165 168 167 160 149 142 141 143 141 135 127 117 114 116 120 130 138 140 135 130 125 116 109 111 104 93 101 110 112 113 112 112 104 95 102 111 115 116 111 106 109 119 123 127 131 129 127 122 120 115 105 93 87 86 84 79 74 66 57 47 30 26 25 27 21 17 15 14 16 15 15 15 16 22 29 25 17 14 15 24 31 29 26 16 20 25 30 32 31 34 34 33 30 27 20 8 2 5 11 10 6 9 8 3 0 0 0 0 0 0 0 0 0 0 0 0 0 0 0 0 0 0 0 0 0 0 0 0 0 0 0 0 0 0 0 0 0 0 0 0 0 0 0 0 0 0 0 0 0 0 0 0 0 0 0 0 0 0 0 0 0 0 0 0 0 0 0 0 0 0 0 0 0 0 0 0 0 0 0 0 0 0 0 0 0 0 0 0 0 0 0 0 0 0 0 0 0 0 0 0 0 0 0 0 0 0 0 0 0 0 0 0 0 0 0 0 0 0 0 0 0 0 0 0 0 0 0 0 0 0 0 0 0 0 0 0 0 0 0 0 0 0 0 0 0 0 0 0 0 0 0 0 0 0 0 0 0 0 0 0 0 0 0 0 0 0 0 0 0 0 0 0 0 0 0 0 0 0 0 0 0 0 0 0 0 0 0 0 0 0 0 0 0 0 0
129 133 138 142 146 150 162 174 185 201 220 240 260 283 297 302 300 290 284 279 273 264 258 255 251 248 246 241 244 254 260 265 265 267 270 268 263 255 248 243 237 237 244 248 245 239 237 235 230 223 218 211 201 192 193 193 188 189 185 182 179 177 187 203 211 219 219 212 208 202 193 178 169 168 167 171 174 179 177 175 168 161 151 154 163 168 168 158 150 143 137 134 134 130 128 123 116 111 110 111 115 121 125 123 121 118 116 115 111 100 95 106 113 116 115 114 113 106 96 105 113 116 118 118 121 127 135 138 134 131 124 119 115 111 105 103 102 98 96 96 90 84 77 71 67 61 54 50 44 29 17 15 15 14 13 14 13 12 15 22 20 15 14 15 23 26 26 21 13 16 26 29 28 26 32 36 34 31 27 15 7 2 1 2 4 7 8 7 2 0 0 0 0 0 0 0 0 0 0 0 0 0 0 0 0 0 0 0 0 0 0 0 0 0 0 0 0 0 0 0 0 0 0 0 0 0 0 0 0 0 0 0 0 0 0 0 0 0 0 0 0 0 0 0 0 0 0 0 0 0 0 0 0 0 0 0 0 0 0 0 0 0 0 0 0 0 0 0 0 0 0 0 0 0 0 0 0 0 0 0 0 0 0 0 0 0 0 0 0 0 0 0 0 0 0 0 0 0 0 0 0 0 0 0 0 0 0 0 0 0 0 0 0 0 0 0 0 0 0 0 0 0 0 0 0 0 0 0 0 0 0 0 0 0 0 0 0 0 0 0 0 0 0 0 0 0 0 0 0 0 0 0 0 0 0 0 0 0 0 0 0 0 0 0 0 0 0 0 0 0 0 0 0 0 0 0 0 0 0 0
128 133 137 139 141 146 156 170 182 201 221 236 256 274 288 296 296 292 287 280 275 263 257 255 249 247 245 238 239 247 263 273 268 259 255 250 248 250 243 236 230 227 229 230 227 222 222 229 221 214 207 203 196 188 183 181 184 195 203 208 202 185 174 175 183 194 203 203 199 197 192 180 165 157 161 173 182 188 186 177 167 157 148 148 155 159 157 145 138 129 124 122 121 120 118 114 113 113 113 113 111 111 113 113 111 110 110 108 100 93 100 113 122 122 118 117 113 105 99 101 107 113 120 125 128 135 140 141 137 133 130 128 123 118 113 117 116 112 106 106 102 96 90 80 69 65 63 57 43 25 17 17 14 13 12 13 13 13 15 17 19 14 11 10 15 17 20 13 11 13 21 26 23 23 29 33 32 31 22 14 11 7 5 4 6 10 10 6 1 0 0 0 0 0 0 0 0 0 0 0 0 0 0 0 0 0 0 0 0 0 0 0 0 0 0 0 0 0 0 0 0 0 0 0 0 0 0 0 0 0 0 0 0 0 0 0 0 0 0 0 0 0 0 0 0 0 0 0 0 0 0 0 0 0 0 0 0 0 0 0 0 0 0 0 0 0 0 0 0 0 0 0 0 0 0 0 0 0 0 0 0 0 0 0 0 0 0 0 0 0 0 0 0 0 0 0 0 0 0 0 0 0 0 0 0 0 0 0 0 0 0 0 0 0 0 0 0 0 0 0 0 0 0 0 0 0 0 0 0 0 0 0 0 0 0 0 0 0 0 0 0 0 0 0 0 0 0 0 0 0 0 0 0 0 0 0 0 0 0 0 0 0 0 0 0 0 0 0 0 0 0 0 0 0 0 0 0 0 0 0
128 132 135 136 138 142 149 165 180 197 215 230 245 259 274 283 285 281 280 275 268 262 256 252 246 243 241 234 232 237 242 252 252 244 235 226 225 225 221 218 216 212 210 208 208 204 204 207 204 199 196 192 186 186 186 194 210 226 234 235 224 206 194 186 173 169 174 178 181 182 178 167 158 151 157 164 174 183 188 180 169 157 147 144 141 143 143 137 129 122 126 133 134 134 131 126 122 120 118 113 109 108 110 109 107 106 104 99 96 96 105 117 128 127 122 121 118 110 103 102 106 112 118 127 136 145 146 143 131 128 127 129 126 121 120 120 121 119 115 112 108 102 90 80 68 52 45 39 27 20 17 16 16 14 12 11 13 13 12 12 15 12 10 10 10 14 14 9 9 13 23 24 22 28 30 29 29 25 16 12 10 11 9 7 9 10 10 2 0 0 0 0 0 0 0 0 0 0 0 0 0 0 0 0 0 0 0 0 0 0 0 0 0 0 0 0 0 0 0 0 0 0 0 0 0 0 0 0 0 0 0 0 0 0 0 0 0 0 0 0 0 0 0 0 0 0 0 0 0 0 0 0 0 0 0 0 0 0 0 0 0 0 0 0 0 0 0 0 0 0 0 0 0 0 0 0 0 0 0 0 0 0 0 0 0 0 0 0 0 0 0 0 0 0 0 0 0 0 0 0 0 0 0 0 0 0 0 0 0 0 0 0 0 0 0 0 0 0 0 0 0 0 0 0 0 0 0 0 0 0 0 0 0 0 0 0 0 0 0 0 0 0 0 0 0 0 0 0 0 0 0 0 0 0 0 0 0 0 0 0 0 0 0 0 0 0 0 0 0 0 0 0 0 0 0 0 0 0 0 0
127 128 131 135 139 143 146 158 171 186 206 224 238 250 263 273 274 274 274 273 265 260 257 251 244 246 244 233 229 235 234 233 231 229 226 225 228 235 242 243 240 229 219 214 208 204 202 197 193 191 190 189 192 202 212 224 236 243 244 237 225 213 204 201 193 180 167 160 161 166 165 157 152 148 148 152 157 164 171 171 162 154 146 139 133 132 131 130 128 128 138 155 161 161 154 146 142 135 129 122 114 105 105 106 106 103 101 110 119 118 110 110 118 121 122 122 120 114 109 105 107 115 121 128 141 148 144 136 127 121 116 117 116 114 117 120 121 119 113 107 101 97 85 73 64 49 39 37 34 30 29 28 19 13 13 9 8 10 10 11 14 13 10 10 9 10 11 8 8 14 26 20 21 26 28 26 23 18 10 10 10 9 7 10 11 8 6 1 0 0 0 0 0 0 0 0 0 0 0 0 0 0 0 0 0 0 0 0 0 0 0 0 0 0 0 0 0 0 0 0 0 0 0 0 0 0 0 0 0 0 0 0 0 0 0 0 0 0 0 0 0 0 0 0 0 0 0 0 0 0 0 0 0 0 0 0 0 0 0 0 0 0 0 0 0 0 0 0 0 0 0 0 0 0 0 0 0 0 0 0 0 0 0 0 0 0 0 0 0 0 0 0 0 0 0 0 0 0 0 0 0 0 0 0 0 0 0 0 0 0 0 0 0 0 0 0 0 0 0 0 0 0 0 0 0 0 0 0 0 0 0 0 0 0 0 0 0 0 0 0 0 0 0 0 0 0 0 0 0 0 0 0 0 0 0 0 0 0 0 0 0 0 0 0 0 0 0 0 0 0 0 0 0 0 0 0 0 0 0 0
125 128 131 136 138 143 146 155 165 182 200 216 230 243 255 265 267 268 270 271 269 267 261 254 250 250 244 236 241 250 257 257 250 247 245 245 256 259 260 262 256 244 236 231 222 211 205 202 200 198 192 197 212 223 229 237 243 245 241 230 212 201 191 185 183 175 168 162 160 158 151 148 147 145 146 145 145 147 155 158 154 149 140 134 134 133 129 129 130 133 148 165 171 167 164 165 165 157 149 140 129 121 114 106 103 101 109 129 141 141 130 119 116 117 123 126 123 117 113 111 112 118 127 139 147 145 137 131 123 114 108 103 101 105 109 111 113 107 103 99 91 80 68 60 58 53 49 50 51 52 43 32 23 13 14 10 10 10 13 15 13 11 11 10 9 8 9 8 9 16 26 20 16 17 16 16 15 12 8 9 9 6 6 7 7 5 3 2 0 0 0 0 0 0 0 0 0 0 0 0 0 0 0 0 0 0 0 0 0 0 0 0 0 0 0 0 0 0 0 0 0 0 0 0 0 0 0 0 0 0 0 0 0 0 0 0 0 0 0 0 0 0 0 0 0 0 0 0 0 0 0 0 0 0 0 0 0 0 0 0 0 0 0 0 0 0 0 0 0 0 0 0 0 0 0 0 0 0 0 0 0 0 0 0 0 0 0 0 0 0 0 0 0 0 0 0 0 0 0 0 0 0 0 0 0 0 0 0 0 0 0 0 0 0 0 0 0 0 0 0 0 0 0 0 0 0 0 0 0 0 0 0 0 0 0 0 0 0 0 0 0 0 0 0 0 0 0 0 0 0 0 0 0 0 0 0 0 0 0 0 0 0 0 0 0 0 0 0 0 0 0 0 0 0 0 0 0 0 0 0
125 128 131 133 135 140 145 154 167 182 201 220 233 242 254 261 264 261 260 263 264 264 263 261 254 244 239 239 251 261 263 260 256 253 255 267 274 273 266 260 253 248 243 236 224 216 208 209 210 208 202 208 218 229 234 234 230 226 222 220 207 190 176 171 171 175 179 181 182 179 172 164 160 156 148 142 140 140 141 143 142 141 137 135 135 134 134 138 142 152 164 173 177 175 174 174 172 164 158 150 138 135 132 125 122 124 131 139 144 147 140 130 121 120 125 127 125 120 116 115 116 122 127 133 137 136 133 126 119 112 106 99 96 98 99 98 95 87 84 85 82 71 70 73 73 65 59 57 54 54 42 31 21 14 14 13 14 12 10 15 13 12 12 10 9 9 9 9 9 12 20 21 13 8 6 5 9 7 6 6 5 3 4 6 7 4 1 0 0 0 0 0 0 0 0 0 0 0 0 0 0 0 0 0 0 0 0 0 0 0 0 0 0 0 0 0 0 0 0 0 0 0 0 0 0 0 0 0 0 0 0 0 0 0 0 0 0 0 0 0 0 0 0 0 0 0 0 0 0 0 0 0 0 0 0 0 0 0 0 0 0 0 0 0 0 0 0 0 0 0 0 0 0 0 0 0 0 0 0 0 0 0 0 0 0 0 0 0 0 0 0 0 0 0 0 0 0 0 0 0 0 0 0 0 0 0 0 0 0 0 0 0 0 0 0 0 0 0 0 0 0 0 0 0 0 0 0 0 0 0 0 0 0 0 0 0 0 0 0 0 0 0 0 0 0 0 0 0 0 0 0 0 0 0 0 0 0 0 0 0 0 0 0 0 0 0 0 0 0 0 0 0 0 0 0 0 0 0 0 0
124 128 130 132 135 137 142 153 167 182 199 215 231 243 251 254 255 256 257 256 253 255 257 259 252 241 243 252 259 261 258 251 246 246 249 261 270 269 257 241 237 237 237 229 218 214 216 221 216 210 211 217 221 222 223 216 207 198 195 199 192 178 175 184 194 208 212 206 196 190 184 176 172 162 151 145 140 138 138 137 135 133 131 138 146 153 158 164 168 170 175 181 185 184 180 177 171 164 150 142 132 127 125 124 128 130 130 133 138 137 132 127 126 130 136 135 135 128 121 114 115 119 122 125 126 129 129 124 118 114 108 105 108 108 102 104 102 93 84 74 72 80 87 88 81 74 72 64 46 43 38 25 18 15 14 11 13 11 9 10 11 11 10 9 8 10 8 8 9 10 16 18 13 6 4 4 4 3 3 4 3 1 3 5 5 3 2 0 0 0 0 0 0 0 0 0 0 0 0 0 0 0 0 0 0 0 0 0 0 0 0 0 0 0 0 0 0 0 0 0 0 0 0 0 0 0 0 0 0 0 0 0 0 0 0 0 0 0 0 0 0 0 0 0 0 0 0 0 0 0 0 0 0 0 0 0 0 0 0 0 0 0 0 0 0 0 0 0 0 0 0 0 0 0 0 0 0 0 0 0 0 0 0 0 0 0 0 0 0 0 0 0 0 0 0 0 0 0 0 0 0 0 0 0 0 0 0 0 0 0 0 0 0 0 0 0 0 0 0 0 0 0 0 0 0 0 0 0 0 0 0 0 0 0 0 0 0 0 0 0 0 0 0 0 0 0 0 0 0 0 0 0 0 0 0 0 0 0 0 0 0 0 0 0 0 0 0 0 0 0 0 0 0 0 0 0 0 0 0 0
122 124 126 130 130 132 138 148 162 179 197 215 231 241 248 247 250 252 251 249 248 248 246 247 243 243 251 261 263 255 248 244 241 237 237 245 253 254 244 230 222 223 224 222 213 212 219 226 224 215 216 220 217 209 204 198 191 187 187 188 184 187 196 209 222 227 222 213 198 183 174 170 166 156 149 147 144 143 142 137 134 134 143 154 168 174 173 175 176 174 175 177 180 175 174 172 168 159 144 133 122 117 116 118 120 121 115 113 120 124 126 127 128 134 142 140 137 130 119 112 113 113 113 118 121 125 125 121 115 109 107 110 115 118 120 121 118 108 93 83 89 95 94 89 85 79 71 53 29 26 24 19 17 15 16 11 10 10 11 12 13 11 11 9 8 9 6 7 7 8 8 10 9 6 5 6 3 4 3 4 5 5 3 4 3 2 0 0 0 0 0 0 0 0 0 0 0 0 0 0 0 0 0 0 0 0 0 0 0 0 0 0 0 0 0 0 0 0 0 0 0 0 0 0 0 0 0 0 0 0 0 0 0 0 0 0 0 0 0 0 0 0 0 0 0 0 0 0 0 0 0 0 0 0 0 0 0 0 0 0 0 0 0 0 0 0 0 0 0 0 0 0 0 0 0 0 0 0 0 0 0 0 0 0 0 0 0 0 0 0 0 0 0 0 0 0 0 0 0 0 0 0 0 0 0 0 0 0 0 0 0 0 0 0 0 0 0 0 0 0 0 0 0 0 0 0 0 0 0 0 0 0 0 0 0 0 0 0 0 0 0 0 0 0 0 0 0 0 0 0 0 0 0 0 0 0 0 0 0 0 0 0 0 0 0 0 0 0 0 0 0 0 0 0 0 0 0 0 0 0
120 122 124 127 126 129 135 143 162 183 198 215 230 227 224 229 239 244 239 243 256 257 253 252 251 252 259 262 259 252 244 242 242 237 229 229 232 235 237 234 225 218 216 216 216 212 214 221 217 209 208 215 216 207 199 195 194 199 209 214 212 212 214 219 223 223 218 206 194 182 170 163 159 151 149 146 143 143 141 137 135 137 147 162 172 174 173 173 169 169 172 172 174 171 166 161 163 162 152 138 121 116 112 111 108 106 109 107 102 110 119 120 123 132 135 132 129 123 113 108 107 109 114 118 117 117 117 114 110 106 104 104 112 118 121 118 110 101 92 95 101 102 94 86 78 71 53 33 21 19 16 18 16 15 22 21 18 18 21 24 14 11 9 7 9 7 6 7 6 9 10 9 8 7 5 5 5 5 5 3 4 3 3 5 3 2 0 0 0 0 0 0 0 0 0 0 0 0 0 0 0 0 0 0 0 0 0 0 0 0 0 0 0 0 0 0 0 0 0 0 0 0 0 0 0 0 0 0 0 0 0 0 0 0 0 0 0 0 0 0 0 0 0 0 0 0 0 0 0 0 0 0 0 0 0 0 0 0 0 0 0 0 0 0 0 0 0 0 0 0 0 0 0 0 0 0 0 0 0 0 0 0 0 0 0 0 0 0 0 0 0 0 0 0 0 0 0 0 0 0 0 0 0 0 0 0 0 0 0 0 0 0 0 0 0 0 0 0 0 0 0 0 0 0 0 0 0 0 0 0 0 0 0 0 0 0 0 0 0 0 0 0 0 0 0 0 0 0 0 0 0 0 0 0 0 0 0 0 0 0 0 0 0 0 0 0 0 0 0 0 0 0 0 0 0 0 0 0 0 0
119 122 121 122 123 126 131 141 154 169 183 204 208 204 198 203 214 216 219 232 250 258 255 251 250 254 262 260 254 249 242 239 240 236 231 227 223 222 224 228 228 221 217 218 215 209 208 210 207 206 208 213 211 204 202 206 210 213 219 216 211 207 213 216 210 206 203 197 190 183 177 172 167 160 155 150 147 140 137 139 145 143 145 153 160 159 160 160 159 156 163 166 169 170 164 153 149 147 141 129 118 111 107 111 111 126 143 141 126 109 100 102 111 119 122 121 116 110 102 98 105 114 120 122 117 113 111 107 105 101 97 98 109 116 120 114 106 105 109 107 107 107 99 83 62 40 35 39 41 39 34 31 24 21 25 29 31 33 35 29 17 12 7 8 6 7 9 10 7 6 7 7 7 6 4 3 3 4 4 2 4 5 4 4 2 1 0 0 0 0 0 0 0 0 0 0 0 0 0 0 0 0 0 0 0 0 0 0 0 0 0 0 0 0 0 0 0 0 0 0 0 0 0 0 0 0 0 0 0 0 0 0 0 0 0 0 0 0 0 0 0 0 0 0 0 0 0 0 0 0 0 0 0 0 0 0 0 0 0 0 0 0 0 0 0 0 0 0 0 0 0 0 0 0 0 0 0 0 0 0 0 0 0 0 0 0 0 0 0 0 0 0 0 0 0 0 0 0 0 0 0 0 0 0 0 0 0 0 0 0 0 0 0 0 0 0 0 0 0 0 0 0 0 0 0 0 0 0 0 0 0 0 0 0 0 0 0 0 0 0 0 0 0 0 0 0 0 0 0 0 0 0 0 0 0 0 0 0 0 0 0 0 0 0 0 0 0 0 0 0 0 0 0 0 0 0 0 0 0 0
118 119 118 121 122 123 126 132 143 154 169 178 176 173 172 175 182 191 208 220 233 246 248 248 252 257 264 262 255 248 241 235 235 233 229 228 223 219 219 221 222 222 221 216 214 209 200 200 199 196 203 216 216 211 216 223 227 223 216 206 197 192 195 198 193 187 182 181 180 177 173 170 166 159 154 148 146 140 142 156 165 160 155 155 156 159 157 151 148 146 153 159 164 163 156 144 133 127 123 119 115 112 117 126 133 139 144 143 134 118 102 90 92 96 103 106 105 99 94 101 112 122 122 119 112 110 106 104 98 95 90 96 103 107 109 103 98 104 110 108 109 108 98 76 45 43 63 73 71 59 50 47 41 36 34 32 29 30 32 27 17 12 9 8 6 7 8 11 6 5 5 6 5 6 4 4 3 4 4 3 4 4 4 3 3 1 0 0 0 0 0 0 0 0 0 0 0 0 0 0 0 0 0 0 0 0 0 0 0 0 0 0 0 0 0 0 0 0 0 0 0 0 0 0 0 0 0 0 0 0 0 0 0 0 0 0 0 0 0 0 0 0 0 0 0 0 0 0 0 0 0 0 0 0 0 0 0 0 0 0 0 0 0 0 0 0 0 0 0 0 0 0 0 0 0 0 0 0 0 0 0 0 0 0 0 0 0 0 0 0 0 0 0 0 0 0 0 0 0 0 0 0 0 0 0 0 0 0 0 0 0 0 0 0 0 0 0 0 0 0 0 0 0 0 0 0 0 0 0 0 0 0 0 0 0 0 0 0 0 0 0 0 0 0 0 0 0 0 0 0 0 0 0 0 0 0 0 0 0 0 0 0 0 0 0 0 0 0 0 0 0 0 0 0 0 0 0 0 0 0
119 115 112 115 118 122 125 130 135 144 152 155 155 153 158 167 180 189 201 210 221 228 230 236 250 260 263 261 257 250 243 237 231 227 224 226 225 219 217 216 216 214 215 212 209 206 203 197 194 194 202 214 221 225 227 224 220 214 211 208 200 195 194 190 187 182 176 173 169 164 158 154 153 148 148 145 145 144 148 160 169 174 174 171 172 173 167 155 142 139 146 154 156 151 146 132 125 120 118 114 115 121 126 132 132 131 129 125 118 107 99 93 87 83 81 85 87 88 87 95 104 113 113 108 101 102 104 105 97 91 83 83 82 82 79 77 85 93 95 100 102 96 78 62 45 63 84 89 83 69 54 45 42 37 33 32 26 20 19 16 12 10 10 7 5 6 7 8 7 7 6 5 4 3 3 5 3 4 5 4 3 4 4 3 3 0 0 0 0 0 0 0 0 0 0 0 0 0 0 0 0 0 0 0 0 0 0 0 0 0 0 0 0 0 0 0 0 0 0 0 0 0 0 0 0 0 0 0 0 0 0 0 0 0 0 0 0 0 0 0 0 0 0 0 0 0 0 0 0 0 0 0 0 0 0 0 0 0 0 0 0 0 0 0 0 0 0 0 0 0 0 0 0 0 0 0 0 0 0 0 0 0 0 0 0 0 0 0 0 0 0 0 0 0 0 0 0 0 0 0 0 0 0 0 0 0 0 0 0 0 0 0 0 0 0 0 0 0 0 0 0 0 0 0 0 0 0 0 0 0 0 0 0 0 0 0 0 0 0 0 0 0 0 0 0 0 0 0 0 0 0 0 0 0 0 0 0 0 0 0 0 0 0 0 0 0 0 0 0 0 0 0 0 0 0 0 0 0 0 0
112 109 108 110 113 117 123 128 132 138 140 136 137 151 169 183 194 198 201 206 214 217 218 230 247 255 256 257 262 256 250 247 235 230 226 224 222 218 216 215 214 212 210 207 205 201 200 197 194 191 193 198 204 217 219 211 201 198 202 205 210 213 211 206 197 189 185 177 169 165 157 154 150 145 144 144 148 153 157 159 165 173 178 177 177 177 170 157 143 136 137 141 141 138 131 120 119 119 119 125 127 131 132 131 127 121 120 121 120 109 98 87 79 79 79 79 77 74 72 74 81 91 99 98 93 96 100 103 102 96 91 90 88 82 73 58 60 71 82 84 82 70 50 59 71 79 85 85 85 73 54 40 35 32 28 24 22 22 20 16 14 11 10 10 8 6 6 7 5 6 6 4 3 3 3 4 4 5 5 5 4 5 4 3 1 0 0 0 0 0 0 0 0 0 0 0 0 0 0 0 0 0 0 0 0 0 0 0 0 0 0 0 0 0 0 0 0 0 0 0 0 0 0 0 0 0 0 0 0 0 0 0 0 0 0 0 0 0 0 0 0 0 0 0 0 0 0 0 0 0 0 0 0 0 0 0 0 0 0 0 0 0 0 0 0 0 0 0 0 0 0 0 0 0 0 0 0 0 0 0 0 0 0 0 0 0 0 0 0 0 0 0 0 0 0 0 0 0 0 0 0 0 0 0 0 0 0 0 0 0 0 0 0 0 0 0 0 0 0 0 0 0 0 0 0 0 0 0 0 0 0 0 0 0 0 0 0 0 0 0 0 0 0 0 0 0 0 0 0 0 0 0 0 0 0 0 0 0 0 0 0 0 0 0 0 0 0 0 0 0 0 0 0 0 0 0 0 0 0 0
107 106 107 107 110 113 116 119 127 129 125 128 139 156 178 193 205 214 210 206 203 205 209 222 241 245 245 244 244 245 246 243 237 233 229 225 221 219 217 215 213 211 207 205 202 199 197 195 190 188 188 189 193 201 204 196 187 188 193 200 213 221 218 206 193 181 176 172 169 163 157 151 146 145 150 152 152 158 166 174 173 175 178 175 171 166 159 150 140 135 133 129 127 128 124 123 122 127 133 141 142 138 136 131 127 130 133 132 125 115 99 86 84 97 106 105 100 85 77 74 72 72 77 80 79 78 86 92 95 93 88 79 75 74 68 50 40 44 52 53 51 44 52 79 88 81 73 69 69 61 48 40 38 38 34 31 29 26 24 24 26 21 10 8 7 9 7 7 5 7 6 4 3 3 3 4 4 4 5 7 4 4 4 2 1 0 0 0 0 0 0 0 0 0 0 0 0 0 0 0 0 0 0 0 0 0 0 0 0 0 0 0 0 0 0 0 0 0 0 0 0 0 0 0 0 0 0 0 0 0 0 0 0 0 0 0 0 0 0 0 0 0 0 0 0 0 0 0 0 0 0 0 0 0 0 0 0 0 0 0 0 0 0 0 0 0 0 0 0 0 0 0 0 0 0 0 0 0 0 0 0 0 0 0 0 0 0 0 0 0 0 0 0 0 0 0 0 0 0 0 0 0 0 0 0 0 0 0 0 0 0 0 0 0 0 0 0 0 0 0 0 0 0 0 0 0 0 0 0 0 0 0 0 0 0 0 0 0 0 0 0 0 0 0 0 0 0 0 0 0 0 0 0 0 0 0 0 0 0 0 0 0 0 0 0 0 0 0 0 0 0 0 0 0 0 0 0 0 0 0
105 105 105 105 106 109 110 114 119 120 122 130 143 161 180 196 208 214 212 205 195 193 201 212 229 237 238 234 231 232 236 234 228 223 222 222 220 219 219 216 213 212 207 202 198 198 195 193 189 187 185 184 183 185 189 185 179 180 183 193 204 211 211 202 191 178 169 163 159 156 153 148 147 149 154 160 166 170 178 183 184 186 184 182 176 171 157 145 141 137 135 131 129 129 125 124 125 133 142 147 146 145 142 135 134 138 141 134 124 108 94 83 94 110 125 125 117 99 85 80 78 80 82 73 70 67 67 73 83 88 80 62 53 53 50 51 56 53 49 54 59 63 74 89 88 78 65 57 52 46 42 47 52 54 50 43 32 26 27 27 25 19 10 9 13 23 15 7 9 21 27 27 22 18 11 8 7 4 5 5 6 5 3 1 0 0 0 0 0 0 0 0 0 0 0 0 0 0 0 0 0 0 0 0 0 0 0 0 0 0 0 0 0 0 0 0 0 0 0 0 0 0 0 0 0 0 0 0 0 0 0 0 0 0 0 0 0 0 0 0 0 0 0 0 0 0 0 0 0 0 0 0 0 0 0 0 0 0 0 0 0 0 0 0 0 0 0 0 0 0 0 0 0 0 0 0 0 0 0 0 0 0 0 0 0 0 0 0 0 0 0 0 0 0 0 0 0 0 0 0 0 0 0 0 0 0 0 0 0 0 0 0 0 0 0 0 0 0 0 0 0 0 0 0 0 0 0 0 0 0 0 0 0 0 0 0 0 0 0 0 0 0 0 0 0 0 0 0 0 0 0 0 0 0 0 0 0 0 0 0 0 0 0 0 0 0 0 0 0 0 0 0 0 0 0 0 0 0 0 0
103 103 104 105 108 109 111 113 114 116 120 129 143 156 173 185 186 189 195 195 188 187 196 207 224 233 226 220 216 216 220 224 220 215 210 208 209 211 218 219 215 210 205 202 198 196 194 191 187 185 184 180 177 176 179 175 175 176 175 181 186 187 187 187 181 173 168 162 156 151 147 151 154 152 155 168 181 191 194 195 192 188 185 180 174 172 164 158 157 153 148 143 137 132 127 124 127 136 147 153 154 153 146 138 133 133 132 122 111 97 85 85 99 114 124 122 114 98 86 85 89 96 96 92 81 72 65 61 73 79 69 51 58 63 77 90 97 98 98 97 102 107 103 101 91 79 72 66 55 45 54 73 80 78 75 60 49 36 32 29 27 17 13 12 11 16 13 8 19 28 29 30 31 30 27 24 19 10 5 4 4 3 3 1 0 0 0 0 0 0 0 0 0 0 0 0 0 0 0 0 0 0 0 0 0 0 0 0 0 0 0 0 0 0 0 0 0 0 0 0 0 0 0 0 0 0 0 0 0 0 0 0 0 0 0 0 0 0 0 0 0 0 0 0 0 0 0 0 0 0 0 0 0 0 0 0 0 0 0 0 0 0 0 0 0 0 0 0 0 0 0 0 0 0 0 0 0 0 0 0 0 0 0 0 0 0 0 0 0 0 0 0 0 0 0 0 0 0 0 0 0 0 0 0 0 0 0 0 0 0 0 0 0 0 0 0 0 0 0 0 0 0 0 0 0 0 0 0 0 0 0 0 0 0 0 0 0 0 0 0 0 0 0 0 0 0 0 0 0 0 0 0 0 0 0 0 0 0 0 0 0 0 0 0 0 0 0 0 0 0 0 0 0 0 0 0 0 0 0 0
101 102 104 104 108 109 109 112 113 113 116 122 130 142 160 175 168 166 172 180 184 180 186 198 209 218 216 208 201 201 208 208 207 205 203 202 204 208 218 222 222 215 207 202 200 196 193 190 185 182 181 176 174 174 173 170 170 169 166 168 169 170 171 167 165 158 157 154 151 147 152 152 158 160 163 174 187 200 202 200 195 188 180 171 166 163 160 158 158 158 154 147 142 137 130 126 127 131 140 149 151 149 144 140 132 124 116 108 97 90 87 97 112 123 127 122 107 97 92 91 97 99 98 93 89 79 60 59 67 66 57 56 74 96 111 113 113 112 113 111 114 117 112 100 87 75 65 58 54 51 60 79 87 83 76 69 59 53 48 35 22 16 15 13 10 12 11 14 26 29 29 30 30 28 24 20 16 12 6 5 4 4 3 1 0 0 0 0 0 0 0 0 0 0 0 0 0 0 0 0 0 0 0 0 0 0 0 0 0 0 0 0 0 0 0 0 0 0 0 0 0 0 0 0 0 0 0 0 0 0 0 0 0 0 0 0 0 0 0 0 0 0 0 0 0 0 0 0 0 0 0 0 0 0 0 0 0 0 0 0 0 0 0 0 0 0 0 0 0 0 0 0 0 0 0 0 0 0 0 0 0 0 0 0 0 0 0 0 0 0 0 0 0 0 0 0 0 0 0 0 0 0 0 0 0 0 0 0 0 0 0 0 0 0 0 0 0 0 0 0 0 0 0 0 0 0 0 0 0 0 0 0 0 0 0 0 0 0 0 0 0 0 0 0 0 0 0 0 0 0 0 0 0 0 0 0 0 0 0 0 0 0 0 0 0 0 0 0 0 0 0 0 0 0 0 0 0 0 0 0
101 100 102 104 106 107 109 111 110 113 118 125 127 130 136 152 155 157 161 179 184 178 176 186 196 200 196 190 184 186 197 198 197 194 194 196 204 208 210 216 221 218 212 204 198 196 194 190 186 184 185 184 181 180 175 171 170 168 165 163 161 160 158 161 160 155 153 150 150 158 168 167 167 171 175 181 187 192 196 195 195 193 188 175 162 158 156 155 151 149 147 144 140 134 132 135 135 133 134 139 139 136 144 148 148 140 125 110 97 88 91 99 118 130 128 119 109 107 103 101 101 102 100 95 95 90 69 58 64 62 62 75 96 109 112 114 111 105 101 99 98 95 89 80 71 66 66 68 67 64 62 74 88 87 74 63 54 50 44 35 31 28 23 15 14 18 17 19 26 30 29 28 27 26 21 16 13 11 8 4 4 3 1 2 0 0 0 0 0 0 0 0 0 0 0 0 0 0 0 0 0 0 0 0 0 0 0 0 0 0 0 0 0 0 0 0 0 0 0 0 0 0 0 0 0 0 0 0 0 0 0 0 0 0 0 0 0 0 0 0 0 0 0 0 0 0 0 0 0 0 0 0 0 0 0 0 0 0 0 0 0 0 0 0 0 0 0 0 0 0 0 0 0 0 0 0 0 0 0 0 0 0 0 0 0 0 0 0 0 0 0 0 0 0 0 0 0 0 0 0 0 0 0 0 0 0 0 0 0 0 0 0 0 0 0 0 0 0 0 0 0 0 0 0 0 0 0 0 0 0 0 0 0 0 0 0 0 0 0 0 0 0 0 0 0 0 0 0 0 0 0 0 0 0 0 0 0 0 0 0 0 0 0 0 0 0 0 0 0 0 0 0 0 0 0 0 0 0 0 0
100 102 103 105 106 106 108 112 113 122 128 144 150 139 134 141 148 150 155 171 183 184 174 166 174 177 176 173 172 180 189 187 188 187 186 189 198 201 197 197 201 205 208 203 199 198 196 195 192 190 193 197 196 192 188 186 184 181 175 169 165 164 163 160 156 151 153 162 177 184 184 182 177 181 190 195 196 192 190 189 189 186 183 171 162 166 166 163 155 148 143 142 140 138 139 139 138 135 133 134 131 131 139 145 145 140 134 128 112 100 92 95 110 120 124 124 121 115 112 104 100 99 99 98 97 98 94 89 81 84 91 98 110 118 118 116 113 108 100 90 83 82 81 87 85 80 77 83 88 82 71 76 87 90 78 64 48 48 50 45 35 26 19 16 20 25 23 21 26 29 29 29 27 26 21 16 15 16 10 5 4 3 2 6 0 0 0 0 0 0 0 0 0 0 0 0 0 0 0 0 0 0 0 0 0 0 0 0 0 0 0 0 0 0 0 0 0 0 0 0 0 0 0 0 0 0 0 0 0 0 0 0 0 0 0 0 0 0 0 0 0 0 0 0 0 0 0 0 0 0 0 0 0 0 0 0 0 0 0 0 0 0 0 0 0 0 0 0 0 0 0 0 0 0 0 0 0 0 0 0 0 0 0 0 0 0 0 0 0 0 0 0 0 0 0 0 0 0 0 0 0 0 0 0 0 0 0 0 0 0 0 0 0 0 0 0 0 0 0 0 0 0 0 0 0 0 0 0 0 0 0 0 0 0 0 0 0 0 0 0 0 0 0 0 0 0 0 0 0 0 0 0 0 0 0 0 0 0 0 0 0 0 0 0 0 0 0 0 0 0 0 0 0 0 0 0 0 0 0 0
102 104 105 109 115 117 118 126 134 145 152 159 159 152 143 138 140 142 146 156 163 163 161 156 158 160 165 169 174 178 184 183 177 176 184 186 188 190 188 187 189 193 196 195 197 202 207 205 203 199 198 200 197 197 195 192 186 181 178 173 167 164 162 159 157 158 170 190 203 207 204 200 193 190 196 203 204 198 188 182 183 178 175 175 177 177 175 170 162 157 152 150 150 146 142 141 139 134 132 131 125 123 124 127 125 123 118 117 107 98 95 94 106 117 124 128 130 122 115 106 97 96 96 95 95 97 96 92 86 85 92 99 111 118 121 118 113 108 98 86 84 91 100 104 99 89 90 94 93 85 74 80 87 87 77 63 48 52 53 47 34 24 22 25 27 29 26 23 29 30 28 27 26 24 22 16 13 13 7 4 3 3 3 0 0 0 0 0 0 0 0 0 0 0 0 0 0 0 0 0 0 0 0 0 0 0 0 0 0 0 0 0 0 0 0 0 0 0 0 0 0 0 0 0 0 0 0 0 0 0 0 0 0 0 0 0 0 0 0 0 0 0 0 0 0 0 0 0 0 0 0 0 0 0 0 0 0 0 0 0 0 0 0 0 0 0 0 0 0 0 0 0 0 0 0 0 0 0 0 0 0 0 0 0 0 0 0 0 0 0 0 0 0 0 0 0 0 0 0 0 0 0 0 0 0 0 0 0 0 0 0 0 0 0 0 0 0 0 0 0 0 0 0 0 0 0 0 0 0 0 0 0 0 0 0 0 0 0 0 0 0 0 0 0 0 0 0 0 0 0 0 0 0 0 0 0 0 0 0 0 0 0 0 0 0 0 0 0 0 0 0 0 0 0 0 0 0 0 0 0
105 107 110 117 122 128 132 136 148 163 163 165 160 151 141 137 139 139 142 144 146 149 151 154 159 163 171 178 182 177 178 177 169 169 180 181 183 185 184 182 184 187 190 189 192 202 211 215 213 207 198 191 186 184 181 179 176 171 168 167 165 162 160 158 160 169 185 204 220 226 224 218 210 203 205 207 202 193 182 178 180 187 194 192 194 193 187 178 170 162 158 156 149 144 141 140 139 136 130 128 125 121 117 116 113 112 104 104 104 102 103 100 105 114 126 130 132 129 119 107 98 95 93 94 94 97 96 93 90 86 88 96 102 109 111 109 105 100 94 94 98 101 105 105 98 95 98 101 94 81 80 85 82 74 64 54 45 48 50 46 34 23 23 28 30 29 24 26 31 31 29 26 24 21 20 15 13 10 5 4 4 3 3 0 0 0 0 0 0 0 0 0 0 0 0 0 0 0 0 0 0 0 0 0 0 0 0 0 0 0 0 0 0 0 0 0 0 0 0 0 0 0 0 0 0 0 0 0 0 0 0 0 0 0 0 0 0 0 0 0 0 0 0 0 0 0 0 0 0 0 0 0 0 0 0 0 0 0 0 0 0 0 0 0 0 0 0 0 0 0 0 0 0 0 0 0 0 0 0 0 0 0 0 0 0 0 0 0 0 0 0 0 0 0 0 0 0 0 0 0 0 0 0 0 0 0 0 0 0 0 0 0 0 0 0 0 0 0 0 0 0 0 0 0 0 0 0 0 0 0 0 0 0 0 0 0 0 0 0 0 0 0 0 0 0 0 0 0 0 0 0 0 0 0 0 0 0 0 0 0 0 0 0 0 0 0 0 0 0 0 0 0 0 0 0 0 0 0 0 0
105 111 113 119 131 137 147 162 172 175 172 165 155 148 143 140 141 142 145 146 149 159 161 166 174 180 189 190 185 182 178 172 167 166 169 175 181 184 182 179 179 182 186 186 188 195 200 204 206 206 198 190 185 183 180 178 174 169 166 167 166 164 164 161 168 178 192 207 224 230 231 228 225 222 214 202 195 190 183 183 191 202 207 206 207 205 197 185 173 162 158 155 147 141 140 138 136 133 128 124 117 118 117 111 109 106 105 107 108 106 110 110 108 112 118 123 129 130 126 117 109 102 98 99 99 97 96 96 91 90 90 95 95 98 95 94 94 96 99 96 99 102 105 103 100 101 104 101 97 90 89 89 82 69 58 49 48 53 52 44 37 29 25 28 30 28 27 28 30 30 28 28 26 20 15 13 11 8 5 5 3 2 0 0 0 0 0 0 0 0 0 0 0 0 0 0 0 0 0 0 0 0 0 0 0 0 0 0 0 0 0 0 0 0 0 0 0 0 0 0 0 0 0 0 0 0 0 0 0 0 0 0 0 0 0 0 0 0 0 0 0 0 0 0 0 0 0 0 0 0 0 0 0 0 0 0 0 0 0 0 0 0 0 0 0 0 0 0 0 0 0 0 0 0 0 0 0 0 0 0 0 0 0 0 0 0 0 0 0 0 0 0 0 0 0 0 0 0 0 0 0 0 0 0 0 0 0 0 0 0 0 0 0 0 0 0 0 0 0 0 0 0 0 0 0 0 0 0 0 0 0 0 0 0 0 0 0 0 0 0 0 0 0 0 0 0 0 0 0 0 0 0 0 0 0 0 0 0 0 0 0 0 0 0 0 0 0 0 0 0 0 0 0 0 0 0 0 0 0 0
109 114 122 132 140 148 158 172 183 186 180 168 156 148 144 141 143 146 148 152 158 171 179 182 185 188 193 197 196 190 180 174 170 164 164 170 179 180 181 178 176 178 181 180 183 186 185 187 189 193 191 186 180 179 178 176 174 170 170 172 174 173 166 161 173 193 208 218 222 218 221 220 218 218 214 203 196 190 191 192 199 205 207 208 210 209 201 186 174 167 162 154 144 141 139 136 134 132 129 122 118 124 126 119 116 112 109 108 111 121 132 143 139 133 119 115 116 119 122 121 116 111 106 105 101 100 100 98 93 91 92 92 92 92 93 95 96 95 94 92 94 95 95 94 94 95 95 91 91 90 85 78 71 65 57 51 55 60 62 50 39 33 29 27 29 29 28 29 31 30 26 23 21 19 14 11 9 5 4 4 3 3 0 0 0 0 0 0 0 0 0 0 0 0 0 0 0 0 0 0 0 0 0 0 0 0 0 0 0 0 0 0 0 0 0 0 0 0 0 0 0 0 0 0 0 0 0 0 0 0 0 0 0 0 0 0 0 0 0 0 0 0 0 0 0 0 0 0 0 0 0 0 0 0 0 0 0 0 0 0 0 0 0 0 0 0 0 0 0 0 0 0 0 0 0 0 0 0 0 0 0 0 0 0 0 0 0 0 0 0 0 0 0 0 0 0 0 0 0 0 0 0 0 0 0 0 0 0 0 0 0 0 0 0 0 0 0 0 0 0 0 0 0 0 0 0 0 0 0 0 0 0 0 0 0 0 0 0 0 0 0 0 0 0 0 0 0 0 0 0 0 0 0 0 0 0 0 0 0 0 0 0 0 0 0 0 0 0 0 0 0 0 0 0 0 0 0 0 0 0
113 121 130 145 154 160 173 190 191 186 182 175 168 153 144 142 145 146 153 157 166 183 194 201 200 202 201 203 202 196 191 182 173 164 159 162 169 176 178 178 176 178 178 177 180 182 182 182 182 183 181 179 177 175 176 176 179 184 189 189 186 181 171 165 173 191 208 212 208 200 198 202 200 201 199 195 190 188 190 196 201 202 199 189 188 194 190 181 168 162 162 156 148 146 138 134 129 126 127 128 130 128 127 123 116 116 117 114 115 136 149 160 161 151 131 120 115 116 116 115 112 107 106 104 102 104 102 100 97 96 94 93 94 92 91 90 88 87 86 88 90 90 88 86 84 86 83 79 81 86 85 76 67 62 59 56 61 67 65 52 42 37 32 30 30 30 31 30 29 30 27 25 23 20 16 14 13 7 5 5 2 3 0 0 0 0 0 0 0 0 0 0 0 0 0 0 0 0 0 0 0 0 0 0 0 0 0 0 0 0 0 0 0 0 0 0 0 0 0 0 0 0 0 0 0 0 0 0 0 0 0 0 0 0 0 0 0 0 0 0 0 0 0 0 0 0 0 0 0 0 0 0 0 0 0 0 0 0 0 0 0 0 0 0 0 0 0 0 0 0 0 0 0 0 0 0 0 0 0 0 0 0 0 0 0 0 0 0 0 0 0 0 0 0 0 0 0 0 0 0 0 0 0 0 0 0 0 0 0 0 0 0 0 0 0 0 0 0 0 0 0 0 0 0 0 0 0 0 0 0 0 0 0 0 0 0 0 0 0 0 0 0 0 0 0 0 0 0 0 0 0 0 0 0 0 0 0 0 0 0 0 0 0 0 0 0 0 0 0 0 0 0 0 0 0 0 0 0 0 0
116 125 136 151 169 183 194 203 200 191 182 173 164 151 146 150 152 156 168 179 183 193 210 226 231 226 222 219 211 203 200 186 177 165 153 157 167 174 180 179 177 182 182 179 182 185 185 185 184 184 182 180 180 181 185 193 200 204 208 211 206 191 174 167 170 180 192 195 191 185 186 191 191 190 189 185 180 178 179 185 192 193 192 179 174 178 173 165 155 150 151 151 146 142 138 132 130 141 142 138 133 129 123 120 118 132 140 126 119 135 149 161 162 150 133 128 121 123 120 116 113 107 108 108 111 113 113 107 103 100 96 93 96 95 92 89 87 84 82 84 86 84 82 84 78 77 75 71 74 82 88 86 80 75 69 61 61 65 67 57 46 39 34 31 30 28 27 29 27 26 27 28 24 22 18 15 10 6 5 4 3 5 1 0 0 0 0 0 0 0 0 0 0 0 0 0 0 0 0 0 0 0 0 0 0 0 0 0 0 0 0 0 0 0 0 0 0 0 0 0 0 0 0 0 0 0 0 0 0 0 0 0 0 0 0 0 0 0 0 0 0 0 0 0 0 0 0 0 0 0 0 0 0 0 0 0 0 0 0 0 0 0 0 0 0 0 0 0 0 0 0 0 0 0 0 0 0 0 0 0 0 0 0 0 0 0 0 0 0 0 0 0 0 0 0 0 0 0 0 0 0 0 0 0 0 0 0 0 0 0 0 0 0 0 0 0 0 0 0 0 0 0 0 0 0 0 0 0 0 0 0 0 0 0 0 0 0 0 0 0 0 0 0 0 0 0 0 0 0 0 0 0 0 0 0 0 0 0 0 0 0 0 0 0 0 0 0 0 0 0 0 0 0 0 0 0 0 0 0 0
124 132 142 156 178 196 204 204 193 180 174 170 158 152 155 165 174 174 185 198 201 208 224 243 252 243 229 218 206 194 189 177 169 161 151 154 158 162 173 176 177 183 190 191 193 196 197 195 190 186 182 180 181 194 204 215 221 225 228 224 212 197 185 174 170 172 179 180 182 187 192 199 201 199 196 193 182 172 169 172 177 183 181 170 162 160 154 151 149 147 145 143 141 140 136 130 138 144 139 135 128 125 120 118 124 135 137 129 120 130 144 158 158 151 140 131 130 132 133 128 119 112 111 118 123 121 117 108 102 99 94 90 89 89 89 88 87 84 79 78 79 78 78 77 75 69 68 67 68 73 82 82 79 74 68 64 64 68 67 57 47 39 37 32 29 28 28 28 27 23 21 21 19 17 14 9 8 8 6 4 5 6 3 0 0 0 0 0 0 0 0 0 0 0 0 0 0 0 0 0 0 0 0 0 0 0 0 0 0 0 0 0 0 0 0 0 0 0 0 0 0 0 0 0 0 0 0 0 0 0 0 0 0 0 0 0 0 0 0 0 0 0 0 0 0 0 0 0 0 0 0 0 0 0 0 0 0 0 0 0 0 0 0 0 0 0 0 0 0 0 0 0 0 0 0 0 0 0 0 0 0 0 0 0 0 0 0 0 0 0 0 0 0 0 0 0 0 0 0 0 0 0 0 0 0 0 0 0 0 0 0 0 0 0 0 0 0 0 0 0 0 0 0 0 0 0 0 0 0 0 0 0 0 0 0 0 0 0 0 0 0 0 0 0 0 0 0 0 0 0 0 0 0 0 0 0 0 0 0 0 0 0 0 0 0 0 0 0 0 0 0 0 0 0 0 0 0 0 0 0
130 142 151 167 188 201 207 207 196 177 170 166 161 158 161 174 190 196 199 206 210 211 226 243 245 234 219 203 189 175 171 167 156 149 153 159 159 174 184 185 182 185 194 195 194 196 198 196 190 186 184 186 189 202 216 231 236 231 226 212 198 190 184 179 172 170 173 175 183 189 194 200 202 204 206 204 192 181 169 166 167 173 166 157 154 155 159 164 163 158 152 149 148 147 139 135 144 145 142 132 127 128 124 127 141 148 143 135 125 124 137 149 150 150 153 147 144 143 142 134 126 119 129 137 135 127 120 109 101 98 94 89 85 84 82 80 79 78 75 75 75 78 80 77 74 75 76 71 67 66 66 71 78 77 72 68 66 66 63 53 44 40 36 32 31 30 29 29 27 27 28 25 21 16 13 9 7 7 6 4 5 6 0 0 0 0 0 0 0 0 0 0 0 0 0 0 0 0 0 0 0 0 0 0 0 0 0 0 0 0 0 0 0 0 0 0 0 0 0 0 0 0 0 0 0 0 0 0 0 0 0 0 0 0 0 0 0 0 0 0 0 0 0 0 0 0 0 0 0 0 0 0 0 0 0 0 0 0 0 0 0 0 0 0 0 0 0 0 0 0 0 0 0 0 0 0 0 0 0 0 0 0 0 0 0 0 0 0 0 0 0 0 0 0 0 0 0 0 0 0 0 0 0 0 0 0 0 0 0 0 0 0 0 0 0 0 0 0 0 0 0 0 0 0 0 0 0 0 0 0 0 0 0 0 0 0 0 0 0 0 0 0 0 0 0 0 0 0 0 0 0 0 0 0 0 0 0 0 0 0 0 0 0 0 0 0 0 0 0 0 0 0 0 0 0 0 0 0 0 0
128 142 151 163 184 200 208 208 197 182 171 165 163 163 167 177 190 204 214 221 227 231 238 245 242 232 218 203 187 175 167 157 149 146 159 166 168 180 187 190 190 188 189 186 183 184 183 185 184 186 191 191 194 203 213 222 229 233 224 209 206 210 204 195 181 171 172 177 179 182 188 193 198 202 205 206 198 185 170 164 164 165 163 162 167 175 179 180 178 168 161 158 152 142 138 150 164 158 141 132 138 147 139 136 153 159 154 144 132 127 135 143 145 154 161 160 155 154 146 137 130 127 131 135 134 123 115 106 101 98 95 89 84 82 80 81 80 79 78 80 81 82 82 79 79 80 82 81 78 72 65 60 62 69 70 67 63 60 56 48 43 39 38 34 32 29 30 31 29 29 28 24 20 15 12 12 9 6 5 3 3 2 0 0 0 0 0 0 0 0 0 0 0 0 0 0 0 0 0 0 0 0 0 0 0 0 0 0 0 0 0 0 0 0 0 0 0 0 0 0 0 0 0 0 0 0 0 0 0 0 0 0 0 0 0 0 0 0 0 0 0 0 0 0 0 0 0 0 0 0 0 0 0 0 0 0 0 0 0 0 0 0 0 0 0 0 0 0 0 0 0 0 0 0 0 0 0 0 0 0 0 0 0 0 0 0 0 0 0 0 0 0 0 0 0 0 0 0 0 0 0 0 0 0 0 0 0 0 0 0 0 0 0 0 0 0 0 0 0 0 0 0 0 0 0 0 0 0 0 0 0 0 0 0 0 0 0 0 0 0 0 0 0 0 0 0 0 0 0 0 0 0 0 0 0 0 0 0 0 0 0 0 0 0 0 0 0 0 0 0 0 0 0 0 0 0 0 0 0 0
131 145 155 165 186 203 208 202 191 173 166 158 156 160 168 178 189 202 217 230 233 228 224 224 226 220 211 196 181 169 157 146 140 144 158 162 167 178 186 190 192 189 186 184 181 178 180 185 190 194 200 198 200 202 205 210 218 231 231 222 224 225 215 197 184 177 174 180 185 185 186 189 194 200 204 202 189 180 175 176 183 190 188 180 183 189 189 187 180 167 161 160 147 141 155 171 178 165 145 135 141 156 156 150 163 170 161 150 139 130 138 144 147 157 159 155 152 148 143 136 132 130 130 133 132 128 122 114 107 101 95 92 87 84 83 84 84 83 84 84 84 85 82 79 82 84 86 86 85 80 78 72 59 57 60 62 64 64 60 49 42 40 38 36 31 30 30 30 30 28 26 24 19 15 12 11 8 5 4 3 4 4 0 0 0 0 0 0 0 0 0 0 0 0 0 0 0 0 0 0 0 0 0 0 0 0 0 0 0 0 0 0 0 0 0 0 0 0 0 0 0 0 0 0 0 0 0 0 0 0 0 0 0 0 0 0 0 0 0 0 0 0 0 0 0 0 0 0 0 0 0 0 0 0 0 0 0 0 0 0 0 0 0 0 0 0 0 0 0 0 0 0 0 0 0 0 0 0 0 0 0 0 0 0 0 0 0 0 0 0 0 0 0 0 0 0 0 0 0 0 0 0 0 0 0 0 0 0 0 0 0 0 0 0 0 0 0 0 0 0 0 0 0 0 0 0 0 0 0 0 0 0 0 0 0 0 0 0 0 0 0 0 0 0 0 0 0 0 0 0 0 0 0 0 0 0 0 0 0 0 0 0 0 0 0 0 0 0 0 0 0 0 0 0 0 0 0 0 0 0
139 151 164 178 195 207 210 203 189 169 153 144 144 153 165 172 179 193 207 219 221 208 200 198 200 196 190 180 169 156 146 139 133 140 149 155 168 182 194 197 192 188 186 184 181 182 186 193 204 212 210 203 202 204 204 209 218 228 230 228 222 213 203 197 197 191 186 186 189 193 195 197 200 205 204 195 188 188 188 188 190 191 186 177 179 178 173 171 168 159 155 151 143 155 169 180 177 163 144 136 145 160 164 163 172 176 173 164 147 140 145 146 148 149 146 142 140 139 137 133 131 130 130 136 142 137 127 117 110 105 97 94 93 96 95 89 87 86 86 85 85 86 87 85 86 88 89 87 82 79 78 79 71 59 54 55 58 62 59 49 42 38 35 32 30 29 29 31 31 30 27 25 21 16 14 12 8 5 4 4 3 5 0 0 0 0 0 0 0 0 0 0 0 0 0 0 0 0 0 0 0 0 0 0 0 0 0 0 0 0 0 0 0 0 0 0 0 0 0 0 0 0 0 0 0 0 0 0 0 0 0 0 0 0 0 0 0 0 0 0 0 0 0 0 0 0 0 0 0 0 0 0 0 0 0 0 0 0 0 0 0 0 0 0 0 0 0 0 0 0 0 0 0 0 0 0 0 0 0 0 0 0 0 0 0 0 0 0 0 0 0 0 0 0 0 0 0 0 0 0 0 0 0 0 0 0 0 0 0 0 0 0 0 0 0 0 0 0 0 0 0 0 0 0 0 0 0 0 0 0 0 0 0 0 0 0 0 0 0 0 0 0 0 0 0 0 0 0 0 0 0 0 0 0 0 0 0 0 0 0 0 0 0 0 0 0 0 0 0 0 0 0 0 0 0 0 0 0 0 0
140 158 178 195 206 214 214 204 189 174 157 140 130 143 151 156 171 182 196 207 206 194 184 174 174 175 171 163 154 144 138 131 132 145 155 161 171 187 201 202 197 191 185 185 186 189 207 221 230 226 215 207 209 209 205 208 215 223 221 218 216 212 207 208 207 199 199 203 204 201 203 207 209 208 204 201 197 195 192 185 180 178 172 165 162 163 168 171 165 156 147 144 148 164 177 178 174 160 143 138 145 159 169 176 183 185 177 165 152 143 146 148 148 144 141 134 127 126 129 128 126 125 124 130 136 135 129 121 117 113 108 102 103 108 107 98 95 92 89 88 87 88 88 88 87 87 85 82 82 78 70 66 65 60 52 51 53 58 57 51 43 38 34 30 31 30 28 28 31 31 28 25 21 16 16 15 6 3 5 4 3 4 0 0 0 0 0 0 0 0 0 0 0 0 0 0 0 0 0 0 0 0 0 0 0 0 0 0 0 0 0 0 0 0 0 0 0 0 0 0 0 0 0 0 0 0 0 0 0 0 0 0 0 0 0 0 0 0 0 0 0 0 0 0 0 0 0 0 0 0 0 0 0 0 0 0 0 0 0 0 0 0 0 0 0 0 0 0 0 0 0 0 0 0 0 0 0 0 0 0 0 0 0 0 0 0 0 0 0 0 0 0 0 0 0 0 0 0 0 0 0 0 0 0 0 0 0 0 0 0 0 0 0 0 0 0 0 0 0 0 0 0 0 0 0 0 0 0 0 0 0 0 0 0 0 0 0 0 0 0 0 0 0 0 0 0 0 0 0 0 0 0 0 0 0 0 0 0 0 0 0 0 0 0 0 0 0 0 0 0 0 0 0 0 0 0 0 0 0 0
149 171 188 203 216 229 227 212 193 176 160 141 126 127 135 148 163 169 180 189 187 182 172 158 153 156 152 146 139 133 128 125 134 149 163 178 184 192 202 203 197 191 185 186 193 203 220 230 227 215 211 214 222 219 210 210 218 221 217 208 205 204 205 210 210 204 200 203 205 205 207 209 209 204 201 195 192 189 187 183 178 172 169 161 156 158 164 166 160 154 151 149 155 164 173 175 166 152 143 140 147 158 168 181 190 188 177 163 152 143 139 140 140 139 133 126 118 115 117 116 117 117 119 121 124 126 127 125 122 117 111 110 107 107 105 102 99 92 88 85 85 85 83 84 89 89 81 75 79 78 73 66 62 57 52 50 48 54 56 48 41 38 35 33 30 27 26 26 28 27 27 24 20 16 15 13 5 3 4 4 5 3 0 0 0 0 0 0 0 0 0 0 0 0 0 0 0 0 0 0 0 0 0 0 0 0 0 0 0 0 0 0 0 0 0 0 0 0 0 0 0 0 0 0 0 0 0 0 0 0 0 0 0 0 0 0 0 0 0 0 0 0 0 0 0 0 0 0 0 0 0 0 0 0 0 0 0 0 0 0 0 0 0 0 0 0 0 0 0 0 0 0 0 0 0 0 0 0 0 0 0 0 0 0 0 0 0 0 0 0 0 0 0 0 0 0 0 0 0 0 0 0 0 0 0 0 0 0 0 0 0 0 0 0 0 0 0 0 0 0 0 0 0 0 0 0 0 0 0 0 0 0 0 0 0 0 0 0 0 0 0 0 0 0 0 0 0 0 0 0 0 0 0 0 0 0 0 0 0 0 0 0 0 0 0 0 0 0 0 0 0 0 0 0 0 0 0 0 0 0
150 170 190 207 216 228 231 215 195 174 157 138 124 118 125 140 148 151 160 168 164 160 161 152 141 140 141 136 130 125 122 122 127 141 159 173 186 195 200 200 196 193 188 191 202 213 220 218 214 211 215 227 230 224 216 215 217 220 214 204 201 198 200 209 214 213 204 194 194 195 197 197 199 194 188 182 178 176 176 180 178 168 164 160 156 154 156 157 157 157 156 157 162 167 171 173 163 152 146 144 144 150 166 179 191 189 177 165 153 140 136 134 129 127 121 117 111 103 101 104 108 108 110 114 121 124 125 122 120 118 113 107 106 103 100 98 96 91 87 83 82 80 80 82 87 89 80 66 64 69 70 70 69 64 60 54 46 49 54 50 43 38 35 32 30 29 28 27 26 27 24 21 19 18 16 13 8 4 5 5 5 3 0 0 0 0 0 0 0 0 0 0 0 0 0 0 0 0 0 0 0 0 0 0 0 0 0 0 0 0 0 0 0 0 0 0 0 0 0 0 0 0 0 0 0 0 0 0 0 0 0 0 0 0 0 0 0 0 0 0 0 0 0 0 0 0 0 0 0 0 0 0 0 0 0 0 0 0 0 0 0 0 0 0 0 0 0 0 0 0 0 0 0 0 0 0 0 0 0 0 0 0 0 0 0 0 0 0 0 0 0 0 0 0 0 0 0 0 0 0 0 0 0 0 0 0 0 0 0 0 0 0 0 0 0 0 0 0 0 0 0 0 0 0 0 0 0 0 0 0 0 0 0 0 0 0 0 0 0 0 0 0 0 0 0 0 0 0 0 0 0 0 0 0 0 0 0 0 0 0 0 0 0 0 0 0 0 0 0 0 0 0 0 0 0 0 0 0 0 0
159 176 194 215 225 229 230 214 190 171 157 146 132 120 117 124 128 132 143 145 141 145 148 145 133 130 131 127 126 123 119 119 124 136 148 157 170 182 195 199 194 192 194 199 212 224 223 219 215 216 227 235 229 223 222 221 217 214 210 205 204 199 196 205 214 217 210 197 189 185 186 185 186 187 181 175 171 169 167 165 162 158 159 157 158 161 163 164 164 162 159 162 162 166 172 175 162 153 146 147 151 157 171 183 188 187 181 169 157 138 131 125 122 120 115 108 104 97 93 101 112 112 113 118 121 122 120 116 113 111 108 102 103 104 98 98 99 96 90 85 80 80 78 73 73 73 72 70 60 60 63 63 64 59 58 55 47 43 50 57 53 47 39 36 31 30 29 27 26 26 23 21 19 18 18 15 11 7 7 7 5 2 0 0 0 0 0 0 0 0 0 0 0 0 0 0 0 0 0 0 0 0 0 0 0 0 0 0 0 0 0 0 0 0 0 0 0 0 0 0 0 0 0 0 0 0 0 0 0 0 0 0 0 0 0 0 0 0 0 0 0 0 0 0 0 0 0 0 0 0 0 0 0 0 0 0 0 0 0 0 0 0 0 0 0 0 0 0 0 0 0 0 0 0 0 0 0 0 0 0 0 0 0 0 0 0 0 0 0 0 0 0 0 0 0 0 0 0 0 0 0 0 0 0 0 0 0 0 0 0 0 0 0 0 0 0 0 0 0 0 0 0 0 0 0 0 0 0 0 0 0 0 0 0 0 0 0 0 0 0 0 0 0 0 0 0 0 0 0 0 0 0 0 0 0 0 0 0 0 0 0 0 0 0 0 0 0 0 0 0 0 0 0 0 0 0 0 0 0 0
168 182 197 218 225 226 220 206 187 171 160 157 153 141 130 120 112 115 123 123 125 137 141 135 128 124 124 122 120 120 117 118 121 128 136 148 162 177 186 192 195 194 199 207 215 223 222 219 220 227 231 229 220 214 214 215 212 209 206 205 205 200 195 199 207 211 203 194 186 179 177 176 176 179 178 174 167 163 160 160 160 161 160 160 170 178 179 175 171 168 169 168 170 172 177 174 160 153 150 154 159 169 181 184 184 180 177 170 158 142 136 132 127 118 112 111 111 107 106 97 99 103 103 112 116 116 113 113 109 109 106 102 102 99 94 102 105 101 92 80 76 79 78 75 75 75 77 77 70 55 54 56 54 53 51 52 47 42 49 57 55 53 44 40 38 33 31 29 27 26 24 24 22 20 21 19 16 14 9 7 4 2 0 0 0 0 0 0 0 0 0 0 0 0 0 0 0 0 0 0 0 0 0 0 0 0 0 0 0 0 0 0 0 0 0 0 0 0 0 0 0 0 0 0 0 0 0 0 0 0 0 0 0 0 0 0 0 0 0 0 0 0 0 0 0 0 0 0 0 0 0 0 0 0 0 0 0 0 0 0 0 0 0 0 0 0 0 0 0 0 0 0 0 0 0 0 0 0 0 0 0 0 0 0 0 0 0 0 0 0 0 0 0 0 0 0 0 0 0 0 0 0 0 0 0 0 0 0 0 0 0 0 0 0 0 0 0 0 0 0 0 0 0 0 0 0 0 0 0 0 0 0 0 0 0 0 0 0 0 0 0 0 0 0 0 0 0 0 0 0 0 0 0 0 0 0 0 0 0 0 0 0 0 0 0 0 0 0 0 0 0 0 0 0 0 0 0 0 0 0
167 184 196 207 210 203 196 182 170 163 162 165 160 156 148 128 115 106 104 106 117 131 135 129 126 123 121 120 116 114 113 114 119 123 130 140 151 162 168 177 186 192 199 206 210 218 222 227 229 228 225 223 217 211 209 208 207 202 200 202 201 197 194 194 200 198 194 194 187 179 174 173 171 171 170 166 164 164 168 171 170 169 166 168 181 197 204 202 197 192 186 189 194 192 185 177 164 155 160 166 177 189 188 185 182 179 172 163 156 152 143 138 132 122 119 120 122 127 127 115 97 91 88 96 107 115 111 104 100 94 98 95 93 91 85 86 94 93 84 69 67 72 73 78 81 82 81 76 68 61 59 56 48 43 43 41 41 39 47 52 50 50 49 45 42 38 36 32 29 25 24 22 21 20 20 20 19 14 9 7 6 4 4 2 2 1 0 0 0 0 0 0 0 0 0 0 0 0 0 0 0 0 0 0 0 0 0 0 0 0 0 0 0 0 0 0 0 0 0 0 0 0 0 0 0 0 0 0 0 0 0 0 0 0 0 0 0 0 0 0 0 0 0 0 0 0 0 0 0 0 0 0 0 0 0 0 0 0 0 0 0 0 0 0 0 0 0 0 0 0 0 0 0 0 0 0 0 0 0 0 0 0 0 0 0 0 0 0 0 0 0 0 0 0 0 0 0 0 0 0 0 0 0 0 0 0 0 0 0 0 0 0 0 0 0 0 0 0 0 0 0 0 0 0 0 0 0 0 0 0 0 0 0 0 0 0 0 0 0 0 0 0 0 0 0 0 0 0 0 0 0 0 0 0 0 0 0 0 0 0 0 0 0 0 0 0 0 0 0 0 0 0 0 0 0 0 0 0 0 0
